-0.4108 25.3366 1287.56
-0.417553 28.9353 1287.17
-0.681289 32.4965 1287.12
-1.1881 36.0197 1287.38
-1.92406 39.5047 1287.93
-2.87527 42.9511 1288.76
-4.02781 46.3587 1289.84
-5.36777 49.727 1291.16
-6.88123 53.0558 1292.69
-8.55429 56.3449 1294.42
-10.373 59.5938 1296.34
-12.3256 62.7943 1298.41
-14.4086 65.9066 1300.62
-16.6205 68.8829 1302.91
-18.96 71.6754 1305.27
-21.4257 74.2363 1307.65
-24.0162 76.5178 1310.02
-26.7302 78.4721 1312.35
-29.5661 80.0515 1314.61
-32.5227 81.2081 1316.75
-35.5984 81.8942 1318.76
-38.7874 82.0758 1320.59
-42.0651 81.7746 1322.25
-45.4024 81.0261 1323.75
-48.7701 79.8657 1325.09
-52.1391 78.3289 1326.29
-55.4803 76.4512 1327.35
-58.7645 74.2682 1328.28
-61.9626 71.8153 1329.09
-65.0456 69.1279 1329.78
-67.9841 66.2417 1330.36
-70.7505 63.1885 1330.84
-73.3216 59.9863 1331.23
-75.6757 56.6497 1331.54
-77.7911 53.193 1331.77
-79.6461 49.6308 1331.94
-81.2188 45.9775 1332.05
-82.4877 42.2476 1332.11
-83.4308 38.4556 1332.14
-84.0265 34.6159 1332.13
-84.253 30.7429 1332.1
-84.0976 26.852 1332.06
-83.5837 22.9609 1332
-82.7438 19.0883 1331.94
-81.6102 15.2528 1331.87
-80.2154 11.4729 1331.8
-78.5919 7.76737 1331.72
-76.772 4.15469 1331.65
-74.7881 0.65349 1331.59
-72.6728 -2.71762 1331.53
-70.4584 -5.94003 1331.48
-68.1632 -8.99848 1331.42
-65.7495 -11.891 1331.29
-63.1653 -14.6189 1330.96
-60.3587 -17.1836 1330.36
-57.2776 -19.5863 1329.38
-53.8966 -21.814 1327.95
-50.2957 -23.7948 1326.18
-46.5811 -25.4426 1324.18
-42.8592 -26.6711 1322.08
-39.2364 -27.3941 1320
-35.7995 -27.5474 1318.05
-32.5578 -27.1551 1316.22
-29.501 -26.2638 1314.49
-26.6189 -24.9195 1312.83
-23.9012 -23.1688 1311.23
-21.3378 -21.0578 1309.64
-18.9183 -18.6329 1308.06
-16.6325 -15.9404 1306.44
-14.4702 -13.0266 1304.78
-12.4211 -9.93786 1303.04
-10.4796 -6.71551 1301.2
-8.6578 -3.38111 1299.32
-6.9726 0.0487511 1297.41
-5.44078 3.55748 1295.54
-4.07911 7.12847 1293.75
-2.90439 10.7451 1292.09
-1.93341 14.3909 1290.59
-1.18296 18.0491 1289.3
-0.669827 21.7032 1288.28
-0.41081 25.3363 1287.56
