-128.359 -211.258 1202.72
-128.028 -211.879 1202.97
-127.684 -212.493 1203.22
-127.329 -213.1 1203.47
-126.962 -213.699 1203.72
-126.585 -214.292 1203.96
-126.196 -214.876 1204.21
-125.796 -215.453 1204.45
-125.385 -216.021 1204.69
-124.964 -216.581 1204.93
-124.532 -217.133 1205.17
-124.09 -217.676 1205.41
-123.638 -218.211 1205.65
-123.176 -218.736 1205.88
-122.705 -219.253 1206.11
-122.224 -219.76 1206.34
-121.733 -220.257 1206.57
-121.234 -220.745 1206.8
-120.725 -221.224 1207.02
-120.208 -221.692 1207.24
-119.683 -222.151 1207.46
-119.15 -222.6 1207.68
-118.608 -223.039 1207.89
-118.06 -223.468 1208.1
-117.504 -223.887 1208.31
-116.94 -224.297 1208.52
-116.371 -224.696 1208.72
-115.794 -225.086 1208.92
-115.211 -225.466 1209.12
-114.623 -225.836 1209.32
-114.028 -226.196 1209.51
-113.428 -226.547 1209.71
-112.822 -226.888 1209.89
-112.211 -227.22 1210.08
-111.595 -227.542 1210.26
-110.974 -227.855 1210.44
-110.348 -228.159 1210.62
-109.718 -228.453 1210.8
-109.083 -228.739 1210.97
-108.444 -229.015 1211.14
-107.801 -229.282 1211.31
-107.154 -229.54 1211.48
-106.503 -229.79 1211.64
-105.848 -230.031 1211.8
-105.19 -230.263 1211.96
-104.528 -230.487 1212.11
-103.862 -230.703 1212.27
-103.193 -230.91 1212.42
-102.521 -231.109 1212.57
-101.845 -231.3 1212.71
-101.166 -231.484 1212.86
-100.484 -231.659 1213
-99.7984 -231.826 1213.14
-99.1094 -231.984 1213.27
-98.417 -232.134 1213.41
-97.7211 -232.274 1213.54
-97.0217 -232.403 1213.67
-96.319 -232.522 1213.79
-95.6131 -232.629 1213.91
-94.904 -232.724 1214.03
-94.1921 -232.806 1214.15
-93.4774 -232.876 1214.26
-92.7605 -232.931 1214.36
-92.0414 -232.972 1214.46
-91.3206 -232.998 1214.56
-90.5986 -233.008 1214.65
-89.8757 -233.002 1214.73
-89.1524 -232.98 1214.81
-88.4293 -232.94 1214.89
-87.707 -232.883 1214.95
-86.986 -232.808 1215.01
-86.267 -232.715 1215.07
-85.5507 -232.602 1215.12
-84.8378 -232.47 1215.16
-84.129 -232.318 1215.19
-83.4252 -232.146 1215.22
-82.7272 -231.954 1215.24
-82.0355 -231.742 1215.25
-81.3508 -231.513 1215.25
-80.6735 -231.265 1215.25
-80.0041 -231.001 1215.24
-79.3429 -230.722 1215.23
-78.6903 -230.428 1215.21
-78.0464 -230.12 1215.18
-77.4115 -229.8 1215.15
-76.7857 -229.468 1215.11
-76.169 -229.126 1215.07
-75.5614 -228.773 1215.02
-74.963 -228.412 1214.97
-74.3735 -228.043 1214.92
-73.7928 -227.667 1214.86
-73.2207 -227.285 1214.8
-72.6568 -226.897 1214.73
-72.1009 -226.505 1214.67
-71.5525 -226.109 1214.6
-71.0113 -225.71 1214.53
-70.4766 -225.309 1214.46
-69.948 -224.907 1214.38
-69.4249 -224.504 1214.31
-68.9067 -224.1 1214.24
-68.3927 -223.697 1214.16
-67.8825 -223.295 1214.09
-67.3757 -222.892 1214.01
-66.8722 -222.488 1213.93
-66.3718 -222.083 1213.86
-65.8744 -221.677 1213.78
-65.3799 -221.267 1213.7
-64.8884 -220.854 1213.62
-64.3997 -220.438 1213.54
-63.9139 -220.016 1213.45
-63.4312 -219.59 1213.36
-62.9517 -219.159 1213.28
-62.4755 -218.721 1213.18
-62.0029 -218.276 1213.09
-61.534 -217.824 1212.99
-61.0693 -217.364 1212.89
-60.6091 -216.895 1212.79
-60.1544 -216.418 1212.68
-59.7064 -215.931 1212.57
-59.2666 -215.434 1212.46
-58.8361 -214.927 1212.34
-58.4164 -214.41 1212.21
-58.0088 -213.883 1212.08
-57.6147 -213.345 1211.94
-57.2356 -212.796 1211.8
-56.8729 -212.237 1211.66
-56.528 -211.668 1211.51
-56.2025 -211.089 1211.35
-55.8961 -210.501 1211.19
-55.6062 -209.906 1211.02
-55.3298 -209.306 1210.85
-55.0639 -208.701 1210.68
-54.8053 -208.094 1210.5
-54.5507 -207.485 1210.33
-54.2967 -206.875 1210.15
-54.0401 -206.265 1209.97
-53.7773 -205.655 1209.8
-53.5048 -205.045 1209.62
-53.2193 -204.434 1209.45
-52.9212 -203.823 1209.28
-52.6138 -203.208 1209.11
-52.3005 -202.589 1208.93
-51.9848 -201.963 1208.76
-51.6703 -201.329 1208.58
-51.3608 -200.687 1208.4
-51.06 -200.035 1208.22
-50.7717 -199.373 1208.03
-50.4999 -198.701 1207.83
-50.2484 -198.018 1207.63
-50.0208 -197.325 1207.42
-49.8161 -196.624 1207.21
-49.6309 -195.917 1206.99
-49.4622 -195.206 1206.77
-49.3063 -194.491 1206.55
-49.1598 -193.776 1206.32
-49.0188 -193.061 1206.1
-48.8799 -192.346 1205.87
-48.7388 -191.633 1205.65
-48.5924 -190.923 1205.42
-48.448 -190.213 1205.2
-48.3245 -189.501 1204.97
-48.2414 -188.787 1204.74
-48.2188 -188.069 1204.5
-48.2764 -187.349 1204.25
-48.4342 -186.629 1203.98
-48.6959 -185.915 1203.71
-49.0259 -185.21 1203.43
-49.3824 -184.519 1203.15
-49.727 -183.84 1202.88
-50.0489 -183.173 1202.62
-50.3511 -182.513 1202.36
-50.6369 -181.86 1202.1
-50.9095 -181.211 1201.85
-51.1724 -180.566 1201.6
-51.4289 -179.923 1201.35
-51.6827 -179.28 1201.1
-51.9372 -178.638 1200.85
-52.1961 -177.996 1200.6
-52.4631 -177.354 1200.35
-52.7418 -176.711 1200.1
-53.0358 -176.068 1199.84
-53.3491 -175.425 1199.59
-53.6851 -174.783 1199.33
-54.0461 -174.143 1199.07
-54.4318 -173.508 1198.81
-54.8415 -172.879 1198.54
-55.2746 -172.258 1198.28
-55.7301 -171.646 1198.02
-56.2071 -171.047 1197.76
-56.7046 -170.461 1197.5
-57.2212 -169.89 1197.24
-57.7558 -169.335 1196.99
-58.3069 -168.799 1196.74
-58.8731 -168.282 1196.5
-59.4528 -167.787 1196.26
-60.0444 -167.313 1196.03
-60.6462 -166.863 1195.8
-61.2564 -166.438 1195.59
-61.8732 -166.037 1195.38
-62.4948 -165.662 1195.17
-63.1195 -165.314 1194.98
-63.7463 -164.991 1194.8
-64.3742 -164.691 1194.62
-65.0022 -164.415 1194.45
-65.6296 -164.16 1194.29
-66.2556 -163.925 1194.13
-66.8795 -163.71 1193.98
-67.5007 -163.513 1193.84
-68.1187 -163.333 1193.71
-68.7331 -163.169 1193.58
-69.3433 -163.019 1193.45
-69.9492 -162.883 1193.33
-70.5504 -162.758 1193.22
-71.1467 -162.645 1193.11
-71.738 -162.542 1193
-72.3242 -162.447 1192.9
-72.9052 -162.359 1192.8
-73.481 -162.278 1192.7
-74.0518 -162.202 1192.61
-74.6176 -162.13 1192.52
-75.1786 -162.061 1192.42
-75.7351 -161.994 1192.33
-76.2873 -161.928 1192.25
-76.8356 -161.862 1192.16
-77.3803 -161.795 1192.07
-77.9217 -161.729 1191.98
-78.4603 -161.662 1191.89
-78.9964 -161.595 1191.81
-79.5304 -161.528 1191.72
-80.0625 -161.461 1191.63
-80.5931 -161.395 1191.55
-81.1226 -161.328 1191.46
-81.6513 -161.261 1191.37
-82.1795 -161.195 1191.29
-82.7075 -161.13 1191.2
-83.2356 -161.065 1191.12
-83.7641 -161 1191.03
-84.2933 -160.937 1190.95
-84.8235 -160.875 1190.86
-85.355 -160.814 1190.78
-85.888 -160.754 1190.69
-86.4228 -160.696 1190.61
-86.9596 -160.64 1190.52
-87.4987 -160.585 1190.44
-88.0403 -160.534 1190.36
-88.5845 -160.484 1190.28
-89.1317 -160.438 1190.19
-89.6821 -160.394 1190.11
-90.2356 -160.354 1190.03
-90.7927 -160.318 1189.95
-91.3534 -160.285 1189.87
-91.9178 -160.257 1189.8
-92.4862 -160.233 1189.72
-93.0585 -160.214 1189.65
-93.635 -160.201 1189.57
-94.2157 -160.192 1189.5
-94.8008 -160.19 1189.43
-95.3901 -160.194 1189.36
-95.9839 -160.204 1189.29
-96.5821 -160.221 1189.22
-97.1848 -160.245 1189.16
-97.792 -160.277 1189.1
-98.4036 -160.317 1189.04
-99.0196 -160.365 1188.98
-99.64 -160.422 1188.92
-100.265 -160.488 1188.87
-100.894 -160.564 1188.82
-101.527 -160.649 1188.77
-102.164 -160.744 1188.73
-102.805 -160.85 1188.69
-103.449 -160.968 1188.65
-104.097 -161.096 1188.62
-104.749 -161.236 1188.58
-105.403 -161.389 1188.56
-102.897 -169.385 1168.22
-103.476 -169.516 1168.18
-104.058 -169.655 1168.15
-104.643 -169.801 1168.11
-105.231 -169.956 1168.08
-105.822 -170.118 1168.05
-106.416 -170.29 1168.02
-107.012 -170.471 1167.99
-107.611 -170.662 1167.97
-108.211 -170.863 1167.95
-108.813 -171.075 1167.93
-109.416 -171.297 1167.91
-110.02 -171.53 1167.9
-110.624 -171.775 1167.89
-111.228 -172.031 1167.89
-111.832 -172.299 1167.89
-112.436 -172.579 1167.89
-113.037 -172.872 1167.9
-113.638 -173.178 1167.91
-114.236 -173.497 1167.93
-114.831 -173.828 1167.95
-115.423 -174.173 1167.97
-116.012 -174.531 1168
-116.596 -174.903 1168.04
-117.175 -175.288 1168.08
-117.749 -175.688 1168.12
-118.317 -176.1 1168.17
-118.878 -176.527 1168.22
-119.432 -176.968 1168.28
-119.978 -177.422 1168.35
-120.515 -177.89 1168.42
-121.044 -178.371 1168.49
-121.562 -178.866 1168.57
-122.071 -179.375 1168.66
-122.568 -179.897 1168.75
-123.054 -180.432 1168.85
-123.527 -180.979 1168.96
-123.987 -181.539 1169.07
-124.434 -182.112 1169.18
-124.867 -182.697 1169.3
-125.284 -183.293 1169.43
-125.686 -183.901 1169.56
-126.072 -184.519 1169.7
-126.443 -185.148 1169.84
-126.797 -185.786 1169.99
-127.134 -186.433 1170.14
-127.456 -187.088 1170.3
-127.76 -187.752 1170.46
-128.048 -188.422 1170.63
-128.32 -189.099 1170.8
-128.574 -189.783 1170.98
-128.812 -190.472 1171.16
-129.034 -191.165 1171.34
-129.238 -191.864 1171.53
-129.426 -192.566 1171.72
-129.597 -193.271 1171.92
-129.752 -193.98 1172.11
-129.89 -194.691 1172.31
-130.013 -195.403 1172.52
-130.119 -196.118 1172.72
-130.209 -196.833 1172.93
-130.283 -197.548 1173.14
-130.342 -198.264 1173.36
-130.386 -198.98 1173.57
-130.414 -199.695 1173.79
-130.428 -200.408 1174.01
-130.426 -201.121 1174.23
-130.411 -201.831 1174.45
-130.381 -202.54 1174.67
-130.337 -203.246 1174.9
-130.28 -203.949 1175.12
-130.21 -204.649 1175.35
-130.127 -205.346 1175.57
-130.031 -206.04 1175.8
-129.923 -206.73 1176.03
-129.802 -207.416 1176.26
-129.669 -208.098 1176.49
-129.524 -208.776 1176.72
-129.367 -209.45 1176.95
-129.197 -210.12 1177.18
-129.016 -210.785 1177.41
-128.822 -211.445 1177.64
-128.616 -212.1 1177.87
-128.398 -212.75 1178.1
-128.168 -213.395 1178.33
-127.927 -214.035 1178.56
-127.673 -214.669 1178.79
-127.407 -215.297 1179.02
-127.13 -215.92 1179.25
-126.841 -216.536 1179.49
-126.54 -217.147 1179.72
-126.227 -217.751 1179.95
-125.903 -218.348 1180.17
-125.567 -218.938 1180.4
-125.22 -219.522 1180.63
-124.861 -220.098 1180.86
-124.49 -220.667 1181.09
-124.109 -221.228 1181.31
-123.716 -221.782 1181.54
-123.312 -222.327 1181.76
-122.896 -222.864 1181.99
-122.47 -223.393 1182.21
-122.033 -223.914 1182.43
-121.585 -224.425 1182.65
-121.126 -224.927 1182.87
-120.656 -225.42 1183.08
-120.176 -225.904 1183.3
-119.686 -226.378 1183.51
-119.187 -226.842 1183.73
-118.678 -227.297 1183.94
-118.159 -227.741 1184.15
-117.632 -228.175 1184.35
-117.097 -228.599 1184.56
-116.554 -229.013 1184.76
-116.003 -229.416 1184.96
-115.444 -229.809 1185.16
-114.878 -230.192 1185.36
-114.306 -230.564 1185.55
-113.727 -230.926 1185.74
-113.142 -231.277 1185.93
-112.551 -231.618 1186.12
-111.955 -231.948 1186.3
-111.353 -232.268 1186.49
-110.747 -232.578 1186.67
-110.135 -232.877 1186.84
-109.52 -233.167 1187.02
-108.9 -233.446 1187.19
-108.276 -233.715 1187.36
-107.648 -233.974 1187.52
-107.018 -234.223 1187.69
-106.384 -234.462 1187.85
-105.747 -234.692 1188.01
-105.107 -234.912 1188.17
-104.465 -235.123 1188.32
-103.82 -235.325 1188.47
-103.173 -235.517 1188.62
-102.524 -235.701 1188.77
-101.874 -235.876 1188.91
-101.221 -236.042 1189.05
-100.567 -236.199 1189.19
-99.912 -236.349 1189.33
-99.2549 -236.489 1189.46
-98.5962 -236.621 1189.59
-97.9357 -236.743 1189.72
-97.2735 -236.856 1189.85
-96.6095 -236.959 1189.97
-95.9437 -237.052 1190.09
-95.2763 -237.135 1190.21
-94.6072 -237.207 1190.33
-93.9364 -237.268 1190.44
-93.2643 -237.318 1190.55
-92.5907 -237.357 1190.65
-91.9158 -237.383 1190.75
-91.2399 -237.398 1190.85
-90.5631 -237.4 1190.94
-89.8856 -237.39 1191.03
-89.2076 -237.366 1191.12
-88.5294 -237.329 1191.2
-87.8512 -237.279 1191.28
-87.1734 -237.215 1191.36
-86.4962 -237.136 1191.42
-85.82 -237.043 1191.49
-85.1451 -236.936 1191.55
-84.472 -236.813 1191.6
-83.8009 -236.676 1191.65
-83.1325 -236.523 1191.7
-82.467 -236.354 1191.74
-81.805 -236.169 1191.77
-81.1469 -235.97 1191.8
-80.4931 -235.755 1191.83
-79.8441 -235.527 1191.85
-79.2001 -235.285 1191.86
-78.5616 -235.03 1191.87
-77.9288 -234.762 1191.87
-77.3019 -234.483 1191.87
-76.6812 -234.192 1191.87
-76.0669 -233.89 1191.86
-75.4591 -233.578 1191.85
-74.858 -233.256 1191.83
-74.2635 -232.925 1191.81
-73.6758 -232.586 1191.79
-73.0949 -232.238 1191.76
-72.5207 -231.883 1191.73
-71.9532 -231.521 1191.7
-71.3923 -231.153 1191.66
-70.8379 -230.778 1191.62
-70.2899 -230.398 1191.58
-69.748 -230.013 1191.54
-69.2121 -229.624 1191.49
-68.6819 -229.23 1191.44
-68.1572 -228.832 1191.39
-67.6376 -228.432 1191.34
-67.1229 -228.028 1191.29
-66.6128 -227.622 1191.23
-66.1068 -227.213 1191.18
-65.605 -226.802 1191.12
-65.1076 -226.388 1191.06
-64.6148 -225.969 1191
-64.1269 -225.546 1190.93
-63.6444 -225.117 1190.87
-63.1675 -224.682 1190.8
-62.6969 -224.24 1190.73
-62.2329 -223.791 1190.65
-61.7762 -223.335 1190.57
-61.3273 -222.869 1190.49
-60.887 -222.395 1190.41
-60.4558 -221.912 1190.32
-60.0346 -221.418 1190.22
-59.6241 -220.915 1190.12
-59.225 -220.401 1190.02
-58.8382 -219.876 1189.91
-58.4627 -219.343 1189.8
-58.0976 -218.801 1189.68
-57.7417 -218.253 1189.56
-57.3937 -217.699 1189.44
-57.0521 -217.142 1189.31
-56.7155 -216.582 1189.19
-56.3825 -216.02 1189.06
-56.0513 -215.457 1188.93
-55.7202 -214.894 1188.8
-55.3883 -214.331 1188.68
-55.0565 -213.767 1188.55
-54.7262 -213.201 1188.42
-54.3989 -212.632 1188.29
-54.0763 -212.059 1188.15
-53.7598 -211.482 1188.02
-53.4511 -210.899 1187.88
-53.152 -210.311 1187.74
-52.8643 -209.716 1187.6
-52.5897 -209.114 1187.45
-52.3301 -208.506 1187.3
-52.0874 -207.891 1187.14
-51.861 -207.269 1186.98
-51.649 -206.642 1186.82
-51.4492 -206.009 1186.65
-51.2596 -205.372 1186.48
-51.0779 -204.73 1186.3
-50.9021 -204.084 1186.13
-50.7299 -203.433 1185.95
-50.5592 -202.777 1185.77
-50.3878 -202.117 1185.59
-50.2134 -201.452 1185.41
-50.0342 -200.78 1185.23
-49.8593 -200.102 1185.04
-49.7286 -199.418 1184.85
-49.6441 -198.731 1184.65
-49.5987 -198.041 1184.44
-49.586 -197.35 1184.23
-49.5989 -196.659 1184.01
-49.6306 -195.968 1183.8
-49.6744 -195.276 1183.58
-49.7236 -194.583 1183.36
-49.7712 -193.887 1183.13
-49.8121 -193.186 1182.91
-49.8505 -192.482 1182.69
-49.8946 -191.777 1182.47
-49.9528 -191.073 1182.24
-50.033 -190.373 1182.01
-50.1431 -189.68 1181.78
-50.2907 -189 1181.55
-50.4831 -188.337 1181.32
-50.7276 -187.695 1181.09
-51.0285 -187.08 1180.86
-51.3786 -186.49 1180.63
-51.7679 -185.922 1180.4
-52.1865 -185.373 1180.17
-52.625 -184.838 1179.94
-53.0739 -184.312 1179.72
-53.5243 -183.79 1179.5
-53.9679 -183.266 1179.27
-54.3966 -182.733 1179.05
-54.8074 -182.189 1178.82
-55.2034 -181.633 1178.6
-55.5881 -181.067 1178.37
-55.9645 -180.492 1178.14
-56.3359 -179.91 1177.91
-56.7054 -179.322 1177.68
-57.0757 -178.731 1177.44
-57.4496 -178.137 1177.21
-57.8297 -177.544 1176.97
-58.2184 -176.954 1176.73
-58.618 -176.369 1176.5
-59.0305 -175.792 1176.26
-59.4577 -175.225 1176.03
-59.9013 -174.673 1175.8
-60.3629 -174.137 1175.57
-60.8436 -173.621 1175.34
-61.3445 -173.128 1175.12
-61.8664 -172.662 1174.9
-62.409 -172.224 1174.69
-62.9702 -171.815 1174.49
-63.5479 -171.433 1174.29
-64.1401 -171.078 1174.1
-64.7448 -170.75 1173.92
-65.3604 -170.447 1173.74
-65.9848 -170.169 1173.57
-66.6165 -169.914 1173.4
-67.2539 -169.682 1173.24
-67.8953 -169.471 1173.09
-68.5394 -169.28 1172.94
-69.1849 -169.108 1172.8
-69.8304 -168.953 1172.66
-70.4749 -168.814 1172.53
-71.1172 -168.69 1172.4
-71.7564 -168.579 1172.28
-72.3915 -168.479 1172.16
-73.0218 -168.389 1172.04
-73.6467 -168.308 1171.93
-74.2654 -168.233 1171.82
-74.878 -168.164 1171.72
-75.4846 -168.101 1171.61
-76.0853 -168.042 1171.51
-76.6805 -167.989 1171.41
-77.2702 -167.941 1171.32
-77.8547 -167.897 1171.22
-78.4342 -167.858 1171.13
-79.0089 -167.822 1171.04
-79.5791 -167.791 1170.95
-80.1449 -167.763 1170.87
-80.7066 -167.739 1170.78
-81.2644 -167.718 1170.7
-81.8185 -167.7 1170.62
-82.3691 -167.686 1170.53
-82.9166 -167.674 1170.46
-83.461 -167.666 1170.38
-84.0027 -167.66 1170.3
-84.5419 -167.657 1170.23
-85.0787 -167.657 1170.15
-85.6135 -167.659 1170.08
-86.1465 -167.664 1170.01
-86.6779 -167.671 1169.93
-87.2078 -167.681 1169.86
-87.7366 -167.694 1169.8
-88.2645 -167.709 1169.73
-88.7917 -167.726 1169.66
-89.3184 -167.746 1169.59
-89.8448 -167.769 1169.53
-90.3712 -167.794 1169.46
-90.8977 -167.822 1169.4
-91.4246 -167.853 1169.34
-91.9521 -167.887 1169.27
-92.4803 -167.924 1169.21
-93.0095 -167.964 1169.15
-93.5399 -168.007 1169.09
-94.0716 -168.053 1169.03
-94.6049 -168.103 1168.97
-95.1398 -168.157 1168.92
-95.6767 -168.214 1168.86
-96.2157 -168.275 1168.8
-96.7568 -168.34 1168.75
-97.3004 -168.409 1168.7
-97.8465 -168.483 1168.64
-98.3953 -168.562 1168.59
-98.9469 -168.645 1168.54
-99.5015 -168.734 1168.49
-100.059 -168.828 1168.44
-100.62 -168.927 1168.4
-101.184 -169.032 1168.35
-101.752 -169.143 1168.31
-102.323 -169.261 1168.26
-102.652 -176.072 1147.1
-103.255 -176.256 1147.06
-103.857 -176.448 1147.02
-104.457 -176.648 1146.98
-105.054 -176.856 1146.95
-105.649 -177.072 1146.92
-106.241 -177.297 1146.89
-106.831 -177.53 1146.86
-107.419 -177.772 1146.84
-108.003 -178.022 1146.82
-108.585 -178.282 1146.8
-109.164 -178.55 1146.78
-109.739 -178.828 1146.77
-110.311 -179.114 1146.76
-110.88 -179.411 1146.76
-111.445 -179.716 1146.75
-112.005 -180.031 1146.75
-112.562 -180.356 1146.76
-113.115 -180.691 1146.76
-113.662 -181.036 1146.78
-114.205 -181.39 1146.79
-114.743 -181.755 1146.81
-115.276 -182.129 1146.83
-115.803 -182.514 1146.85
-116.324 -182.909 1146.88
-116.839 -183.314 1146.92
-117.347 -183.73 1146.95
-117.849 -184.156 1146.99
-118.344 -184.592 1147.04
-118.831 -185.038 1147.09
-119.311 -185.495 1147.14
-119.782 -185.962 1147.2
-120.246 -186.44 1147.26
-120.7 -186.927 1147.32
-121.146 -187.425 1147.39
-121.582 -187.933 1147.47
-122.008 -188.451 1147.55
-122.424 -188.98 1147.63
-122.829 -189.518 1147.71
-123.224 -190.066 1147.81
-123.607 -190.623 1147.9
-123.979 -191.19 1148
-124.339 -191.766 1148.11
-124.687 -192.351 1148.22
-125.022 -192.945 1148.33
-125.344 -193.546 1148.45
-125.654 -194.156 1148.57
-125.951 -194.772 1148.69
-126.235 -195.396 1148.82
-126.505 -196.026 1148.96
-126.762 -196.662 1149.1
-127.006 -197.305 1149.24
-127.236 -197.952 1149.38
-127.451 -198.605 1149.53
-127.653 -199.262 1149.68
-127.841 -199.924 1149.84
-128.015 -200.589 1150
-128.175 -201.258 1150.16
-128.32 -201.93 1150.32
-128.452 -202.605 1150.49
-128.569 -203.282 1150.66
-128.671 -203.961 1150.83
-128.76 -204.642 1151.01
-128.834 -205.324 1151.19
-128.894 -206.007 1151.37
-128.94 -206.69 1151.55
-128.972 -207.374 1151.74
-128.989 -208.057 1151.93
-128.993 -208.74 1152.12
-128.982 -209.422 1152.31
-128.958 -210.103 1152.5
-128.92 -210.782 1152.7
-128.868 -211.459 1152.9
-128.802 -212.135 1153.09
-128.723 -212.808 1153.29
-128.63 -213.478 1153.5
-128.523 -214.146 1153.7
-128.403 -214.81 1153.9
-128.27 -215.472 1154.11
-128.123 -216.129 1154.31
-127.963 -216.783 1154.52
-127.79 -217.432 1154.73
-127.604 -218.077 1154.94
-127.405 -218.718 1155.15
-127.193 -219.354 1155.36
-126.968 -219.984 1155.57
-126.731 -220.609 1155.78
-126.481 -221.229 1155.99
-126.219 -221.842 1156.2
-125.944 -222.45 1156.42
-125.657 -223.051 1156.63
-125.359 -223.646 1156.84
-125.048 -224.234 1157.05
-124.726 -224.816 1157.27
-124.392 -225.39 1157.48
-124.047 -225.956 1157.69
-123.691 -226.515 1157.9
-123.323 -227.067 1158.11
-122.945 -227.61 1158.32
-122.556 -228.145 1158.53
-122.156 -228.672 1158.74
-121.746 -229.19 1158.95
-121.326 -229.7 1159.16
-120.895 -230.2 1159.36
-120.455 -230.692 1159.57
-120.005 -231.174 1159.77
-119.546 -231.647 1159.98
-119.077 -232.11 1160.18
-118.6 -232.564 1160.38
-118.113 -233.007 1160.58
-117.618 -233.441 1160.78
-117.114 -233.865 1160.98
-116.603 -234.278 1161.17
-116.083 -234.681 1161.36
-115.556 -235.073 1161.55
-115.022 -235.455 1161.74
-114.481 -235.827 1161.93
-113.934 -236.188 1162.12
-113.38 -236.538 1162.3
-112.82 -236.878 1162.48
-112.255 -237.208 1162.66
-111.684 -237.527 1162.84
-111.108 -237.835 1163.02
-110.528 -238.133 1163.19
-109.942 -238.421 1163.36
-109.353 -238.698 1163.53
-108.759 -238.965 1163.7
-108.162 -239.222 1163.86
-107.56 -239.468 1164.03
-106.956 -239.705 1164.19
-106.349 -239.931 1164.34
-105.738 -240.148 1164.5
-105.125 -240.355 1164.65
-104.51 -240.552 1164.8
-103.892 -240.739 1164.95
-103.272 -240.917 1165.1
-102.651 -241.086 1165.24
-102.027 -241.245 1165.38
-101.402 -241.396 1165.52
-100.776 -241.537 1165.66
-100.148 -241.67 1165.79
-99.5188 -241.794 1165.93
-98.8887 -241.91 1166.06
-98.2577 -242.017 1166.18
-97.6259 -242.116 1166.31
-96.9933 -242.207 1166.43
-96.36 -242.29 1166.56
-95.7259 -242.364 1166.68
-95.091 -242.43 1166.79
-94.4551 -242.488 1166.91
-93.8184 -242.536 1167.02
-93.1808 -242.576 1167.13
-92.5422 -242.607 1167.24
-91.9028 -242.628 1167.34
-91.2626 -242.639 1167.45
-90.6216 -242.64 1167.55
-89.9798 -242.631 1167.64
-89.3375 -242.612 1167.74
-88.6947 -242.582 1167.83
-88.0514 -242.542 1167.92
-87.4079 -242.49 1168
-86.7644 -242.427 1168.09
-86.1209 -242.352 1168.17
-85.4777 -242.265 1168.24
-84.8349 -242.167 1168.32
-84.1929 -242.056 1168.38
-83.5518 -241.932 1168.45
-82.9119 -241.796 1168.51
-82.2735 -241.647 1168.57
-81.6369 -241.485 1168.62
-81.0024 -241.31 1168.67
-80.3703 -241.121 1168.72
-79.741 -240.918 1168.76
-79.1149 -240.701 1168.8
-78.4924 -240.472 1168.83
-77.8738 -240.229 1168.86
-77.2597 -239.974 1168.88
-76.6504 -239.707 1168.9
-76.0461 -239.429 1168.92
-75.4473 -239.14 1168.93
-74.8541 -238.84 1168.94
-74.2668 -238.53 1168.95
-73.6857 -238.211 1168.95
-73.1108 -237.882 1168.94
-72.5424 -237.545 1168.94
-71.9806 -237.2 1168.93
-71.4254 -236.848 1168.92
-70.877 -236.489 1168.9
-70.3353 -236.123 1168.89
-69.8004 -235.751 1168.87
-69.2722 -235.373 1168.84
-68.7507 -234.991 1168.82
-68.2357 -234.603 1168.79
-67.7272 -234.212 1168.76
-67.2252 -233.817 1168.73
-66.7292 -233.419 1168.69
-66.2394 -233.019 1168.66
-65.7552 -232.615 1168.62
-65.2767 -232.21 1168.58
-64.8035 -231.804 1168.54
-64.3352 -231.396 1168.5
-63.8717 -230.988 1168.46
-63.4127 -230.579 1168.42
-62.9577 -230.17 1168.37
-62.5067 -229.761 1168.33
-62.0598 -229.351 1168.29
-61.6172 -228.939 1168.24
-61.1793 -228.525 1168.19
-60.7464 -228.106 1168.14
-60.3188 -227.684 1168.09
-59.8972 -227.256 1168.04
-59.4819 -226.822 1167.98
-59.0737 -226.381 1167.92
-58.673 -225.933 1167.86
-58.2807 -225.477 1167.79
-57.8973 -225.012 1167.72
-57.5238 -224.538 1167.65
-57.1609 -224.054 1167.57
-56.8094 -223.56 1167.49
-56.4703 -223.054 1167.4
-56.1446 -222.538 1167.3
-55.8333 -222.01 1167.21
-55.537 -221.47 1167.1
-55.2547 -220.92 1166.99
-54.9842 -220.364 1166.88
-54.7238 -219.803 1166.76
-54.471 -219.24 1166.65
-54.2239 -218.677 1166.53
-53.9815 -218.113 1166.41
-53.7443 -217.549 1166.29
-53.5129 -216.984 1166.17
-53.288 -216.416 1166.04
-53.0701 -215.845 1165.92
-52.8601 -215.27 1165.79
-52.6587 -214.691 1165.66
-52.4667 -214.106 1165.53
-52.285 -213.516 1165.39
-52.1146 -212.92 1165.25
-51.9564 -212.317 1165.11
-51.8115 -211.706 1164.96
-51.6809 -211.088 1164.81
-51.5639 -210.465 1164.65
-51.4578 -209.841 1164.49
-51.3593 -209.22 1164.33
-51.2648 -208.607 1164.18
-51.1726 -208.002 1164.02
-51.0832 -207.404 1163.87
-50.9977 -206.809 1163.72
-50.9173 -206.213 1163.56
-50.8433 -205.614 1163.41
-50.7775 -205.009 1163.25
-50.7216 -204.395 1163.09
-50.6776 -203.77 1162.92
-50.6477 -203.13 1162.75
-50.6341 -202.474 1162.57
-50.6391 -201.806 1162.38
-50.6645 -201.126 1162.18
-50.7121 -200.439 1161.99
-50.7835 -199.746 1161.78
-50.8803 -199.051 1161.57
-51.0035 -198.358 1161.36
-51.1543 -197.668 1161.14
-51.3336 -196.985 1160.93
-51.5419 -196.313 1160.71
-51.7773 -195.655 1160.49
-52.0357 -195.016 1160.27
-52.3136 -194.395 1160.05
-52.6083 -193.791 1159.84
-52.917 -193.203 1159.62
-53.2373 -192.628 1159.41
-53.5671 -192.064 1159.21
-53.9039 -191.509 1159
-54.246 -190.96 1158.79
-54.5915 -190.415 1158.59
-54.939 -189.871 1158.38
-55.2885 -189.328 1158.17
-55.641 -188.786 1157.97
-55.9972 -188.247 1157.76
-56.3581 -187.709 1157.56
-56.7241 -187.175 1157.35
-57.0962 -186.644 1157.14
-57.4749 -186.118 1156.94
-57.8608 -185.597 1156.73
-58.2545 -185.082 1156.53
-58.6565 -184.573 1156.32
-59.0672 -184.072 1156.12
-59.4872 -183.579 1155.92
-59.9167 -183.096 1155.71
-60.3561 -182.623 1155.51
-60.8055 -182.161 1155.32
-61.2652 -181.711 1155.12
-61.7353 -181.274 1154.92
-62.2159 -180.852 1154.73
-62.707 -180.444 1154.54
-63.2084 -180.054 1154.35
-63.7197 -179.679 1154.17
-64.2402 -179.321 1153.99
-64.7691 -178.978 1153.81
-65.3058 -178.651 1153.64
-65.8497 -178.34 1153.46
-66.4001 -178.043 1153.3
-66.9566 -177.761 1153.13
-67.5184 -177.493 1152.97
-68.0853 -177.239 1152.81
-68.6565 -176.999 1152.65
-69.2318 -176.771 1152.5
-69.8106 -176.556 1152.35
-70.3925 -176.354 1152.2
-70.9773 -176.163 1152.06
-71.5645 -175.983 1151.92
-72.1538 -175.814 1151.78
-72.7451 -175.655 1151.64
-73.338 -175.505 1151.51
-73.9322 -175.366 1151.38
-74.5277 -175.235 1151.25
-75.1243 -175.112 1151.12
-75.7219 -174.997 1151
-76.3204 -174.889 1150.87
-76.9197 -174.788 1150.75
-77.5198 -174.694 1150.63
-78.1208 -174.605 1150.51
-78.7226 -174.521 1150.4
-79.3254 -174.443 1150.28
-79.9292 -174.369 1150.17
-80.534 -174.301 1150.05
-81.1398 -174.238 1149.94
-81.7466 -174.18 1149.83
-82.3544 -174.128 1149.72
-82.9631 -174.081 1149.61
-83.5728 -174.04 1149.51
-84.1835 -174.004 1149.4
-84.7951 -173.975 1149.3
-85.4076 -173.951 1149.2
-86.021 -173.934 1149.1
-86.6353 -173.922 1149
-87.2503 -173.917 1148.9
-87.866 -173.919 1148.8
-88.4825 -173.926 1148.71
-89.0996 -173.941 1148.62
-89.7172 -173.962 1148.53
-90.3354 -173.99 1148.44
-90.9539 -174.024 1148.35
-91.5729 -174.066 1148.27
-92.1921 -174.114 1148.19
-92.8114 -174.17 1148.11
-93.4308 -174.233 1148.03
-94.0502 -174.303 1147.95
-94.6695 -174.38 1147.87
-95.2886 -174.465 1147.8
-95.9072 -174.557 1147.73
-96.5255 -174.656 1147.66
-97.1431 -174.764 1147.6
-97.7599 -174.878 1147.53
-98.3759 -175.001 1147.47
-98.9909 -175.131 1147.41
-99.6048 -175.268 1147.35
-100.217 -175.414 1147.3
-100.828 -175.567 1147.25
-101.438 -175.727 1147.2
-102.046 -175.896 1147.15
-104.74 -183.494 1125.58
-105.32 -183.711 1125.53
-105.898 -183.937 1125.49
-106.476 -184.171 1125.45
-107.051 -184.415 1125.41
-107.625 -184.667 1125.37
-108.197 -184.929 1125.34
-108.767 -185.2 1125.31
-109.335 -185.481 1125.28
-109.9 -185.771 1125.25
-110.462 -186.071 1125.23
-111.021 -186.381 1125.21
-111.577 -186.7 1125.2
-112.129 -187.03 1125.18
-112.678 -187.369 1125.17
-113.222 -187.719 1125.16
-113.762 -188.079 1125.16
-114.297 -188.448 1125.16
-114.827 -188.829 1125.16
-115.352 -189.219 1125.17
-115.871 -189.62 1125.18
-116.384 -190.03 1125.19
-116.891 -190.452 1125.21
-117.392 -190.883 1125.23
-117.885 -191.324 1125.26
-118.372 -191.776 1125.29
-118.85 -192.238 1125.32
-119.321 -192.709 1125.35
-119.784 -193.191 1125.39
-120.237 -193.682 1125.44
-120.682 -194.183 1125.49
-121.118 -194.694 1125.54
-121.543 -195.214 1125.59
-121.959 -195.743 1125.65
-122.364 -196.281 1125.72
-122.759 -196.828 1125.79
-123.142 -197.384 1125.86
-123.514 -197.949 1125.93
-123.874 -198.522 1126.01
-124.222 -199.103 1126.1
-124.558 -199.691 1126.19
-124.881 -200.287 1126.28
-125.191 -200.89 1126.38
-125.489 -201.5 1126.48
-125.773 -202.116 1126.58
-126.044 -202.738 1126.69
-126.302 -203.365 1126.8
-126.546 -203.998 1126.92
-126.776 -204.636 1127.04
-126.993 -205.278 1127.16
-127.196 -205.924 1127.29
-127.385 -206.574 1127.41
-127.56 -207.228 1127.55
-127.721 -207.885 1127.68
-127.867 -208.544 1127.82
-128 -209.206 1127.96
-128.118 -209.869 1128.11
-128.222 -210.535 1128.26
-128.312 -211.201 1128.41
-128.387 -211.869 1128.56
-128.448 -212.537 1128.72
-128.495 -213.205 1128.87
-128.528 -213.873 1129.04
-128.546 -214.54 1129.2
-128.551 -215.207 1129.36
-128.541 -215.872 1129.53
-128.517 -216.536 1129.7
-128.479 -217.198 1129.87
-128.428 -217.857 1130.05
-128.362 -218.514 1130.22
-128.283 -219.168 1130.4
-128.191 -219.819 1130.58
-128.085 -220.467 1130.76
-127.966 -221.111 1130.94
-127.833 -221.751 1131.12
-127.688 -222.388 1131.3
-127.53 -223.019 1131.49
-127.36 -223.647 1131.67
-127.177 -224.269 1131.86
-126.981 -224.886 1132.05
-126.774 -225.498 1132.24
-126.555 -226.105 1132.43
-126.323 -226.706 1132.62
-126.081 -227.301 1132.81
-125.827 -227.89 1133
-125.562 -228.473 1133.19
-125.285 -229.05 1133.38
-124.998 -229.62 1133.57
-124.701 -230.183 1133.76
-124.392 -230.739 1133.95
-124.074 -231.289 1134.15
-123.746 -231.831 1134.34
-123.407 -232.367 1134.53
-123.059 -232.894 1134.72
-122.702 -233.415 1134.91
-122.335 -233.927 1135.11
-121.959 -234.432 1135.3
-121.575 -234.93 1135.49
-121.181 -235.419 1135.68
-120.78 -235.9 1135.87
-120.369 -236.374 1136.06
-119.951 -236.839 1136.24
-119.525 -237.296 1136.43
-119.091 -237.744 1136.62
-118.65 -238.185 1136.8
-118.201 -238.617 1136.99
-117.745 -239.04 1137.17
-117.282 -239.455 1137.36
-116.812 -239.862 1137.54
-116.336 -240.26 1137.72
-115.853 -240.649 1137.9
-115.364 -241.03 1138.08
-114.869 -241.402 1138.26
-114.367 -241.766 1138.44
-113.86 -242.12 1138.61
-113.348 -242.466 1138.79
-112.83 -242.803 1138.96
-112.307 -243.132 1139.13
-111.779 -243.451 1139.31
-111.246 -243.762 1139.47
-110.708 -244.063 1139.64
-110.166 -244.356 1139.81
-109.62 -244.64 1139.97
-109.069 -244.915 1140.14
-108.515 -245.181 1140.3
-107.957 -245.438 1140.46
-107.395 -245.686 1140.62
-106.83 -245.925 1140.78
-106.261 -246.156 1140.93
-105.69 -246.378 1141.09
-105.115 -246.591 1141.24
-104.538 -246.795 1141.39
-103.957 -246.99 1141.54
-103.375 -247.177 1141.69
-102.79 -247.355 1141.83
-102.202 -247.525 1141.98
-101.613 -247.686 1142.12
-101.021 -247.839 1142.26
-100.428 -247.983 1142.4
-99.8322 -248.119 1142.54
-99.2352 -248.246 1142.67
-98.6367 -248.365 1142.8
-98.0367 -248.477 1142.93
-97.4353 -248.579 1143.06
-96.8326 -248.674 1143.19
-96.2287 -248.761 1143.32
-95.6237 -248.84 1143.44
-95.0177 -248.911 1143.57
-94.4108 -248.974 1143.69
-93.803 -249.03 1143.81
-93.1944 -249.078 1143.92
-92.585 -249.118 1144.04
-91.975 -249.151 1144.15
-91.3642 -249.176 1144.26
-90.7527 -249.193 1144.37
-90.1404 -249.202 1144.48
-89.5274 -249.203 1144.59
-88.9136 -249.195 1144.69
-88.2992 -249.179 1144.79
-87.684 -249.154 1144.89
-87.0683 -249.12 1144.99
-86.452 -249.077 1145.09
-85.8352 -249.025 1145.18
-85.218 -248.963 1145.27
-84.6005 -248.892 1145.36
-83.9828 -248.81 1145.45
-83.365 -248.719 1145.53
-82.7474 -248.617 1145.61
-82.1299 -248.505 1145.69
-81.5128 -248.382 1145.77
-80.8963 -248.249 1145.84
-80.2805 -248.104 1145.91
-79.6657 -247.948 1145.98
-79.0521 -247.781 1146.05
-78.4398 -247.602 1146.11
-77.8292 -247.412 1146.17
-77.2205 -247.209 1146.22
-76.6139 -246.995 1146.27
-76.0098 -246.768 1146.32
-75.4083 -246.529 1146.36
-74.81 -246.278 1146.4
-74.2149 -246.014 1146.44
-73.6235 -245.738 1146.48
-73.0361 -245.449 1146.5
-72.4531 -245.146 1146.53
-71.8748 -244.832 1146.55
-71.3016 -244.505 1146.57
-70.7339 -244.166 1146.58
-70.1719 -243.816 1146.59
-69.6161 -243.456 1146.6
-69.0666 -243.085 1146.6
-68.5238 -242.703 1146.6
-67.9877 -242.313 1146.6
-67.4587 -241.913 1146.59
-66.937 -241.504 1146.58
-66.4227 -241.088 1146.56
-65.9158 -240.664 1146.54
-65.4165 -240.232 1146.52
-64.925 -239.794 1146.5
-64.4412 -239.349 1146.47
-63.9652 -238.899 1146.44
-63.4969 -238.443 1146.41
-63.0364 -237.983 1146.37
-62.5836 -237.518 1146.34
-62.1384 -237.048 1146.3
-61.7008 -236.576 1146.25
-61.2707 -236.1 1146.21
-60.8479 -235.622 1146.16
-60.4322 -235.141 1146.12
-60.0235 -234.658 1146.07
-59.6218 -234.174 1146.02
-59.2277 -233.687 1145.96
-58.8422 -233.195 1145.91
-58.4661 -232.698 1145.85
-58.1006 -232.195 1145.79
-57.7468 -231.684 1145.72
-57.4059 -231.164 1145.65
-57.0791 -230.635 1145.57
-56.768 -230.095 1145.49
-56.474 -229.544 1145.41
-56.1985 -228.981 1145.31
-55.943 -228.406 1145.21
-55.7067 -227.819 1145.11
-55.4879 -227.223 1145
-55.2851 -226.618 1144.88
-55.0965 -226.006 1144.76
-54.9202 -225.388 1144.64
-54.7544 -224.766 1144.51
-54.5972 -224.14 1144.38
-54.4477 -223.51 1144.25
-54.3067 -222.877 1144.12
-54.1748 -222.242 1143.98
-54.0526 -221.605 1143.85
-53.9408 -220.966 1143.71
-53.84 -220.325 1143.56
-53.7508 -219.684 1143.42
-53.6737 -219.042 1143.27
-53.6093 -218.401 1143.12
-53.558 -217.76 1142.97
-53.5204 -217.121 1142.82
-53.497 -216.484 1142.67
-53.4881 -215.85 1142.51
-53.4935 -215.22 1142.35
-53.5111 -214.593 1142.19
-53.5399 -213.97 1142.03
-53.5785 -213.349 1141.87
-53.6258 -212.731 1141.71
-53.6808 -212.114 1141.55
-53.7422 -211.499 1141.38
-53.8091 -210.883 1141.22
-53.8805 -210.267 1141.05
-53.9556 -209.649 1140.88
-54.0334 -209.028 1140.71
-54.1132 -208.404 1140.55
-54.1945 -207.774 1140.37
-54.2805 -207.143 1140.2
-54.3786 -206.513 1140.03
-54.4957 -205.893 1139.85
-54.6344 -205.285 1139.68
-54.7926 -204.687 1139.5
-54.9681 -204.1 1139.32
-55.1587 -203.522 1139.15
-55.3622 -202.951 1138.97
-55.5767 -202.386 1138.79
-55.8002 -201.826 1138.61
-56.031 -201.268 1138.43
-56.2676 -200.711 1138.26
-56.5093 -200.154 1138.07
-56.757 -199.598 1137.89
-57.0115 -199.043 1137.71
-57.2735 -198.49 1137.53
-57.5438 -197.94 1137.34
-57.8229 -197.393 1137.16
-58.1116 -196.851 1136.97
-58.4103 -196.314 1136.79
-58.7196 -195.783 1136.6
-59.04 -195.259 1136.42
-59.3719 -194.743 1136.23
-59.7151 -194.236 1136.05
-60.0696 -193.737 1135.86
-60.435 -193.248 1135.67
-60.811 -192.767 1135.49
-61.1975 -192.295 1135.3
-61.5942 -191.832 1135.12
-62.0008 -191.378 1134.94
-62.4172 -190.933 1134.75
-62.8431 -190.498 1134.57
-63.2782 -190.072 1134.39
-63.7224 -189.655 1134.21
-64.1755 -189.248 1134.03
-64.6371 -188.85 1133.85
-65.1072 -188.461 1133.67
-65.5856 -188.083 1133.5
-66.0719 -187.713 1133.32
-66.5662 -187.354 1133.14
-67.0681 -187.004 1132.97
-67.5774 -186.664 1132.8
-68.0939 -186.333 1132.63
-68.6172 -186.013 1132.46
-69.147 -185.702 1132.29
-69.6829 -185.401 1132.12
-70.2244 -185.111 1131.95
-70.7713 -184.83 1131.79
-71.3232 -184.559 1131.63
-71.8797 -184.299 1131.46
-72.4406 -184.048 1131.3
-73.0054 -183.807 1131.15
-73.5738 -183.577 1130.99
-74.1455 -183.356 1130.84
-74.7202 -183.144 1130.68
-75.2976 -182.943 1130.53
-75.8774 -182.751 1130.39
-76.4591 -182.568 1130.24
-77.0427 -182.395 1130.1
-77.6278 -182.23 1129.95
-78.2141 -182.075 1129.81
-78.8014 -181.929 1129.68
-79.3894 -181.791 1129.54
-79.978 -181.662 1129.41
-80.5672 -181.541 1129.27
-81.1568 -181.429 1129.14
-81.7469 -181.324 1129.02
-82.3374 -181.229 1128.89
-82.9282 -181.141 1128.77
-83.5194 -181.062 1128.64
-84.1108 -180.991 1128.52
-84.7025 -180.928 1128.41
-85.2943 -180.872 1128.29
-85.8864 -180.825 1128.18
-86.4785 -180.786 1128.06
-87.0708 -180.755 1127.95
-87.6632 -180.732 1127.84
-88.2555 -180.717 1127.74
-88.848 -180.709 1127.63
-89.4403 -180.71 1127.53
-90.0327 -180.718 1127.43
-90.6249 -180.734 1127.33
-91.2171 -180.758 1127.24
-91.8092 -180.79 1127.14
-92.4011 -180.829 1127.05
-92.9928 -180.877 1126.96
-93.5843 -180.932 1126.87
-94.1755 -180.995 1126.78
-94.7666 -181.066 1126.7
-95.3573 -181.145 1126.62
-95.9477 -181.231 1126.54
-96.5377 -181.326 1126.46
-97.1273 -181.428 1126.38
-97.7166 -181.538 1126.31
-98.3053 -181.657 1126.23
-98.8936 -181.783 1126.16
-99.4814 -181.917 1126.1
-100.069 -182.06 1126.03
-100.655 -182.21 1125.97
-101.241 -182.369 1125.9
-101.826 -182.536 1125.84
-102.411 -182.711 1125.79
-102.994 -182.894 1125.73
-103.577 -183.086 1125.68
-104.159 -183.286 1125.63
-105.502 -187.709 1103.34
-106.035 -187.903 1103.28
-106.568 -188.105 1103.22
-107.1 -188.314 1103.17
-107.631 -188.532 1103.11
-108.161 -188.758 1103.06
-108.689 -188.992 1103.01
-109.216 -189.234 1102.97
-109.741 -189.485 1102.92
-110.265 -189.745 1102.88
-110.788 -190.014 1102.84
-111.308 -190.291 1102.8
-111.826 -190.578 1102.76
-112.343 -190.874 1102.73
-112.857 -191.179 1102.7
-113.368 -191.493 1102.67
-113.877 -191.817 1102.65
-114.384 -192.151 1102.62
-114.887 -192.494 1102.6
-115.387 -192.847 1102.59
-115.884 -193.21 1102.57
-116.377 -193.584 1102.56
-116.866 -193.967 1102.55
-117.352 -194.361 1102.55
-117.833 -194.765 1102.54
-118.31 -195.18 1102.54
-118.782 -195.605 1102.55
-119.249 -196.041 1102.55
-119.71 -196.487 1102.56
-120.166 -196.944 1102.58
-120.616 -197.412 1102.59
-121.061 -197.891 1102.62
-121.498 -198.381 1102.64
-121.929 -198.881 1102.67
-122.353 -199.393 1102.7
-122.769 -199.915 1102.74
-123.178 -200.448 1102.78
-123.579 -200.993 1102.82
-123.971 -201.548 1102.87
-124.354 -202.114 1102.92
-124.728 -202.691 1102.97
-125.093 -203.279 1103.03
-125.447 -203.877 1103.1
-125.791 -204.485 1103.17
-126.124 -205.103 1103.24
-126.446 -205.73 1103.31
-126.755 -206.366 1103.4
-127.052 -207.012 1103.48
-127.337 -207.665 1103.57
-127.608 -208.327 1103.66
-127.865 -208.996 1103.76
-128.109 -209.672 1103.86
-128.338 -210.355 1103.97
-128.553 -211.043 1104.08
-128.752 -211.738 1104.2
-128.937 -212.438 1104.31
-129.105 -213.142 1104.44
-129.258 -213.851 1104.56
-129.395 -214.563 1104.69
-129.515 -215.278 1104.83
-129.618 -215.995 1104.97
-129.705 -216.715 1105.11
-129.775 -217.435 1105.25
-129.827 -218.157 1105.4
-129.863 -218.878 1105.55
-129.881 -219.599 1105.71
-129.881 -220.319 1105.87
-129.865 -221.037 1106.03
-129.83 -221.753 1106.19
-129.778 -222.466 1106.36
-129.709 -223.175 1106.53
-129.622 -223.88 1106.7
-129.517 -224.58 1106.87
-129.396 -225.274 1107.05
-129.257 -225.963 1107.23
-129.101 -226.645 1107.41
-128.929 -227.32 1107.59
-128.74 -227.987 1107.77
-128.535 -228.647 1107.95
-128.315 -229.298 1108.14
-128.08 -229.942 1108.32
-127.83 -230.577 1108.51
-127.567 -231.203 1108.7
-127.289 -231.82 1108.89
-126.999 -232.428 1109.08
-126.695 -233.027 1109.27
-126.379 -233.616 1109.46
-126.051 -234.196 1109.64
-125.712 -234.766 1109.83
-125.361 -235.326 1110.02
-125 -235.877 1110.21
-124.628 -236.417 1110.4
-124.247 -236.947 1110.59
-123.855 -237.468 1110.78
-123.455 -237.978 1110.97
-123.046 -238.479 1111.16
-122.629 -238.969 1111.34
-122.204 -239.449 1111.53
-121.771 -239.92 1111.72
-121.331 -240.38 1111.9
-120.884 -240.831 1112.09
-120.43 -241.272 1112.27
-119.97 -241.703 1112.45
-119.504 -242.125 1112.63
-119.033 -242.538 1112.81
-118.556 -242.942 1112.99
-118.074 -243.336 1113.17
-117.587 -243.721 1113.35
-117.096 -244.098 1113.52
-116.6 -244.466 1113.7
-116.1 -244.826 1113.87
-115.597 -245.177 1114.05
-115.089 -245.521 1114.22
-114.578 -245.856 1114.39
-114.064 -246.184 1114.56
-113.546 -246.504 1114.73
-113.026 -246.816 1114.89
-112.503 -247.121 1115.06
-111.977 -247.419 1115.23
-111.449 -247.709 1115.39
-110.918 -247.993 1115.55
-110.386 -248.269 1115.72
-109.851 -248.539 1115.88
-109.313 -248.803 1116.04
-108.774 -249.06 1116.2
-108.234 -249.311 1116.35
-107.691 -249.557 1116.51
-107.146 -249.796 1116.67
-106.6 -250.03 1116.82
-106.052 -250.259 1116.98
-105.502 -250.482 1117.13
-104.951 -250.701 1117.28
-104.398 -250.914 1117.44
-103.843 -251.123 1117.59
-103.286 -251.328 1117.74
-102.727 -251.528 1117.89
-102.166 -251.724 1118.04
-101.603 -251.916 1118.19
-101.039 -252.105 1118.34
-100.471 -252.29 1118.48
-99.9018 -252.471 1118.63
-99.3297 -252.649 1118.78
-98.755 -252.824 1118.93
-98.1774 -252.996 1119.08
-97.5969 -253.166 1119.22
-97.0132 -253.332 1119.37
-96.4262 -253.496 1119.52
-95.8356 -253.657 1119.67
-95.2412 -253.816 1119.81
-94.6428 -253.972 1119.96
-94.0403 -254.126 1120.11
-93.4332 -254.277 1120.26
-92.8214 -254.426 1120.41
-92.2045 -254.57 1120.56
-91.5824 -254.71 1120.71
-90.955 -254.844 1120.85
-90.322 -254.972 1121
-89.6835 -255.094 1121.15
-89.0395 -255.208 1121.3
-88.39 -255.314 1121.45
-87.735 -255.41 1121.59
-87.0748 -255.497 1121.74
-86.4094 -255.573 1121.88
-85.7391 -255.638 1122.02
-85.0642 -255.691 1122.16
-84.3851 -255.731 1122.3
-83.702 -255.758 1122.43
-83.0153 -255.771 1122.57
-82.3257 -255.769 1122.7
-81.6335 -255.752 1122.83
-80.9392 -255.719 1122.95
-80.2436 -255.669 1123.07
-79.5471 -255.602 1123.19
-78.8505 -255.518 1123.3
-78.1545 -255.415 1123.41
-77.4599 -255.294 1123.52
-76.7673 -255.154 1123.62
-76.0777 -254.994 1123.72
-75.3918 -254.814 1123.81
-74.7106 -254.614 1123.89
-74.0351 -254.394 1123.97
-73.366 -254.153 1124.05
-72.7045 -253.891 1124.11
-72.0511 -253.608 1124.18
-71.4063 -253.306 1124.23
-70.7703 -252.985 1124.28
-70.1435 -252.646 1124.33
-69.5261 -252.289 1124.37
-68.9182 -251.916 1124.4
-68.3201 -251.528 1124.43
-67.7319 -251.125 1124.45
-67.1535 -250.708 1124.47
-66.5849 -250.278 1124.48
-66.0263 -249.835 1124.49
-65.4774 -249.38 1124.5
-64.9382 -248.915 1124.5
-64.4084 -248.439 1124.49
-63.8881 -247.953 1124.49
-63.3768 -247.458 1124.47
-62.8744 -246.955 1124.46
-62.3805 -246.443 1124.44
-61.8949 -245.925 1124.42
-61.4171 -245.399 1124.39
-60.9468 -244.867 1124.37
-60.4836 -244.329 1124.34
-60.027 -243.785 1124.3
-59.5766 -243.237 1124.27
-59.1318 -242.683 1124.23
-58.6922 -242.125 1124.19
-58.2576 -241.562 1124.15
-57.8299 -240.993 1124.11
-57.4121 -240.416 1124.06
-57.0073 -239.83 1124.01
-56.6189 -239.232 1123.95
-56.2502 -238.622 1123.89
-55.9048 -237.998 1123.82
-55.5862 -237.359 1123.74
-55.2982 -236.705 1123.65
-55.0433 -236.037 1123.55
-54.8199 -235.357 1123.44
-54.6256 -234.667 1123.33
-54.4577 -233.972 1123.21
-54.3135 -233.273 1123.08
-54.1902 -232.573 1122.95
-54.0846 -231.873 1122.82
-53.9935 -231.177 1122.68
-53.9136 -230.485 1122.54
-53.8416 -229.798 1122.41
-53.7739 -229.119 1122.27
-53.7068 -228.448 1122.14
-53.6432 -227.785 1122
-53.5966 -227.13 1121.87
-53.582 -226.482 1121.73
-53.6063 -225.843 1121.58
-53.6653 -225.211 1121.43
-53.7539 -224.587 1121.28
-53.8674 -223.97 1121.12
-54.0011 -223.359 1120.96
-54.1502 -222.752 1120.8
-54.3101 -222.147 1120.64
-54.4765 -221.544 1120.47
-54.645 -220.94 1120.31
-54.8114 -220.333 1120.14
-54.9719 -219.72 1119.98
-55.1265 -219.101 1119.81
-55.2783 -218.478 1119.65
-55.4303 -217.852 1119.48
-55.5853 -217.225 1119.31
-55.746 -216.599 1119.14
-55.915 -215.977 1118.98
-56.0947 -215.359 1118.81
-56.2874 -214.75 1118.63
-56.4952 -214.151 1118.46
-56.7201 -213.565 1118.29
-56.9639 -212.994 1118.12
-57.2263 -212.441 1117.95
-57.4995 -211.903 1117.78
-57.774 -211.374 1117.61
-58.0407 -210.849 1117.44
-58.2909 -210.322 1117.28
-58.5224 -209.79 1117.12
-58.7394 -209.253 1116.96
-58.9466 -208.711 1116.8
-59.1482 -208.164 1116.64
-59.3488 -207.613 1116.48
-59.5527 -207.059 1116.32
-59.7643 -206.504 1116.16
-59.9877 -205.949 1116
-60.227 -205.396 1115.83
-60.4857 -204.848 1115.66
-60.7628 -204.305 1115.49
-61.0563 -203.768 1115.31
-61.3637 -203.238 1115.14
-61.6828 -202.715 1114.96
-62.011 -202.2 1114.79
-62.3461 -201.692 1114.61
-62.6857 -201.192 1114.44
-63.0274 -200.699 1114.27
-63.3688 -200.212 1114.09
-63.7075 -199.732 1113.92
-64.0427 -199.258 1113.76
-64.3751 -198.789 1113.59
-64.7061 -198.325 1113.42
-65.0365 -197.865 1113.26
-65.3675 -197.41 1113.1
-65.7004 -196.959 1112.94
-66.0361 -196.512 1112.77
-66.3758 -196.069 1112.61
-66.7208 -195.63 1112.45
-67.0721 -195.195 1112.29
-67.4309 -194.765 1112.12
-67.7983 -194.34 1111.96
-68.1755 -193.92 1111.8
-68.5635 -193.505 1111.63
-68.9636 -193.097 1111.47
-69.3767 -192.696 1111.3
-69.804 -192.302 1111.13
-70.2465 -191.917 1110.96
-70.7044 -191.54 1110.79
-71.1771 -191.173 1110.62
-71.6638 -190.815 1110.45
-72.1637 -190.468 1110.28
-72.676 -190.131 1110.11
-73.2 -189.806 1109.94
-73.7347 -189.492 1109.77
-74.2794 -189.189 1109.6
-74.8333 -188.899 1109.43
-75.3954 -188.62 1109.26
-75.9651 -188.354 1109.09
-76.5413 -188.099 1108.93
-77.1233 -187.857 1108.76
-77.7102 -187.627 1108.6
-78.3012 -187.409 1108.44
-78.8955 -187.203 1108.28
-79.4922 -187.009 1108.13
-80.0906 -186.827 1107.97
-80.6898 -186.656 1107.82
-81.289 -186.496 1107.67
-81.8876 -186.347 1107.53
-82.4847 -186.208 1107.38
-83.0802 -186.08 1107.24
-83.6739 -185.961 1107.1
-84.2659 -185.853 1106.97
-84.856 -185.753 1106.83
-85.4443 -185.663 1106.7
-86.0307 -185.583 1106.57
-86.6152 -185.511 1106.44
-87.1978 -185.448 1106.32
-87.7785 -185.394 1106.2
-88.3573 -185.348 1106.08
-88.9342 -185.311 1105.96
-89.5092 -185.282 1105.84
-90.0823 -185.261 1105.73
-90.6536 -185.248 1105.62
-91.223 -185.244 1105.51
-91.7906 -185.247 1105.4
-92.3564 -185.257 1105.3
-92.9204 -185.276 1105.19
-93.4828 -185.301 1105.09
-94.0434 -185.335 1104.99
-94.6025 -185.375 1104.9
-95.1599 -185.423 1104.8
-95.7157 -185.479 1104.71
-96.27 -185.541 1104.61
-96.8229 -185.611 1104.53
-97.3743 -185.688 1104.44
-97.9243 -185.773 1104.35
-98.473 -185.864 1104.27
-99.0203 -185.962 1104.18
-99.5665 -186.068 1104.1
-100.111 -186.181 1104.03
-100.655 -186.301 1103.95
-101.198 -186.428 1103.87
-101.739 -186.563 1103.8
-102.28 -186.704 1103.73
-102.819 -186.853 1103.66
-103.357 -187.009 1103.59
-103.895 -187.173 1103.52
-104.431 -187.344 1103.46
-104.967 -187.523 1103.4
-103.31 -191.522 1081.43
-103.972 -191.749 1081.34
-104.632 -191.989 1081.24
-105.291 -192.243 1081.16
-105.948 -192.51 1081.07
-106.603 -192.79 1080.99
-107.255 -193.085 1080.91
-107.903 -193.394 1080.83
-108.547 -193.717 1080.76
-109.187 -194.055 1080.69
-109.821 -194.408 1080.63
-110.45 -194.776 1080.57
-111.072 -195.158 1080.51
-111.687 -195.555 1080.46
-112.294 -195.968 1080.41
-112.893 -196.395 1080.37
-113.482 -196.837 1080.33
-114.062 -197.294 1080.3
-114.631 -197.766 1080.27
-115.19 -198.253 1080.25
-115.736 -198.753 1080.23
-116.27 -199.268 1080.22
-116.79 -199.798 1080.21
-117.296 -200.34 1080.21
-117.788 -200.896 1080.22
-118.264 -201.466 1080.22
-118.724 -202.048 1080.24
-119.166 -202.642 1080.26
-119.592 -203.248 1080.29
-119.999 -203.866 1080.32
-120.389 -204.493 1080.36
-120.76 -205.131 1080.41
-121.114 -205.777 1080.46
-121.45 -206.43 1080.51
-121.769 -207.091 1080.57
-122.07 -207.759 1080.63
-122.355 -208.432 1080.7
-122.623 -209.109 1080.78
-122.875 -209.792 1080.85
-123.112 -210.477 1080.94
-123.333 -211.166 1081.02
-123.538 -211.857 1081.11
-123.73 -212.551 1081.2
-123.907 -213.245 1081.3
-124.071 -213.941 1081.4
-124.221 -214.637 1081.5
-124.359 -215.334 1081.6
-124.485 -216.03 1081.71
-124.6 -216.726 1081.82
-124.704 -217.422 1081.93
-124.797 -218.116 1082.04
-124.88 -218.809 1082.16
-124.955 -219.502 1082.27
-125.02 -220.192 1082.39
-125.078 -220.882 1082.51
-125.129 -221.57 1082.63
-125.172 -222.257 1082.75
-125.21 -222.942 1082.88
-125.241 -223.627 1083
-125.267 -224.31 1083.12
-125.286 -224.993 1083.25
-125.298 -225.674 1083.38
-125.302 -226.355 1083.51
-125.298 -227.035 1083.64
-125.286 -227.715 1083.77
-125.265 -228.393 1083.9
-125.234 -229.071 1084.04
-125.193 -229.747 1084.17
-125.142 -230.423 1084.31
-125.079 -231.096 1084.46
-125.005 -231.768 1084.6
-124.918 -232.438 1084.74
-124.82 -233.106 1084.89
-124.708 -233.771 1085.04
-124.582 -234.432 1085.19
-124.443 -235.091 1085.35
-124.289 -235.745 1085.5
-124.121 -236.394 1085.66
-123.937 -237.038 1085.82
-123.738 -237.677 1085.99
-123.523 -238.309 1086.15
-123.292 -238.935 1086.32
-123.044 -239.552 1086.49
-122.78 -240.162 1086.66
-122.499 -240.762 1086.83
-122.2 -241.353 1087.01
-121.885 -241.933 1087.18
-121.551 -242.501 1087.36
