39.218749 7.529170 892.610000
41.115883 18.311922 892.610000
42.803445 29.558578 892.610000
41.275401 41.752943 892.610000
37.380049 53.405370 892.610000
31.491503 64.179528 892.610000
23.901771 72.506465 892.610000
18.777425 83.569527 892.610000
5.913345 85.424702 892.610000
4.493470 95.679418 892.610000
2.325784 107.025893 892.610000
0.844564 121.735976 892.610000
-1.489200 134.112284 892.610000
-7.879004 144.285324 892.610000
-14.389006 156.176590 892.610000
-21.578731 165.274625 892.610000
-30.351382 171.754842 892.610000
-42.655320 178.519456 892.610000
-54.508194 181.936095 892.610000
-68.146567 185.225065 892.610000
-77.447754 186.840226 892.610000
-91.408138 184.537241 892.610000
-104.553386 177.840017 892.610000
-117.725818 174.987095 892.610000
-136.868961 166.498191 892.610000
-154.601449 156.114508 892.610000
-168.572121 148.587382 892.610000
-178.914459 140.739433 892.610000
-188.999530 130.466732 892.610000
-197.742510 119.173388 892.610000
-204.040856 103.858166 892.610000
-205.921086 95.827397 892.610000
-209.389514 87.048779 892.610000
-210.155068 77.040276 892.610000
-210.730146 68.867560 892.610000
-210.539103 58.110255 892.610000
-209.143864 47.576002 892.610000
-206.482606 37.383220 892.610000
-202.540647 27.678744 892.610000
-198.291412 17.691842 892.610000
-196.018191 7.529170 892.610000
-191.181028 -0.096313 892.610000
-191.868713 -5.944861 892.610000
-192.676967 -12.959215 892.610000
-193.821994 -17.232008 892.610000
-194.489849 -25.752878 892.610000
-196.462307 -35.217353 892.610000
-197.143125 -43.677288 892.610000
-196.901441 -53.495070 892.610000
-195.059965 -63.036343 892.610000
-192.275915 -71.702881 892.610000
-185.887227 -87.545402 892.610000
-176.616496 -101.163341 892.610000
-166.600654 -115.374158 892.610000
-154.695917 -123.380435 892.610000
-140.957324 -131.055698 892.610000
-128.989075 -136.683501 892.610000
-116.484755 -141.270961 892.610000
-102.280598 -145.518142 892.610000
-83.491951 -148.358731 892.610000
-66.444849 -150.363628 892.610000
-53.077858 -149.230459 892.610000
-39.293888 -146.938403 892.610000
-27.348728 -142.985364 892.610000
-15.716031 -138.206359 892.610000
-4.596000 -129.514429 892.610000
1.524207 -123.784047 892.610000
9.135115 -113.585769 892.610000
14.668547 -101.883423 892.610000
18.419124 -89.571476 892.610000
20.042411 -78.679636 892.610000
22.026710 -66.766186 892.610000
22.304471 -56.469299 892.610000
24.024989 -48.915257 892.610000
23.393780 -38.354544 892.610000
26.580242 -30.967690 892.610000
26.030703 -20.443488 892.610000
26.793973 -13.643805 892.610000
32.562277 -7.570557 892.610000
37.350770 -0.825847 892.610000
39.218749 7.529170 892.610000
s
44.188815 7.529170 1010.610000
43.839034 17.443269 1010.610000
43.028859 26.234516 1010.610000
42.002284 35.048975 1010.610000
40.010720 43.709355 1010.610000
38.025162 52.453919 1010.610000
34.869794 62.087787 1010.610000
31.574756 70.557598 1010.610000
27.917748 78.996012 1010.610000
23.439249 87.082463 1010.610000
19.065663 93.708128 1010.610000
11.936719 104.939702 1010.610000
4.526204 114.542569 1010.610000
-2.230451 123.785972 1010.610000
-9.773151 132.857571 1010.610000
-18.418498 141.106336 1010.610000
-28.432243 147.420616 1010.610000
-39.386410 151.834304 1010.610000
-50.653961 155.619526 1010.610000
-61.153038 156.798954 1010.610000
-70.376878 157.651290 1010.610000
-82.131538 157.813542 1010.610000
-94.996145 154.572306 1010.610000
-104.628266 149.567922 1010.610000
-117.252866 143.333271 1010.610000
-129.578757 137.889332 1010.610000
-139.986646 128.824926 1010.610000
-149.316351 117.164821 1010.610000
-156.837505 104.887882 1010.610000
-160.611714 94.690236 1010.610000
-163.720469 85.302117 1010.610000
-165.057408 75.887982 1010.610000
-166.713560 68.981606 1010.610000
-166.949045 61.563881 1010.610000
-167.161994 52.740665 1010.610000
-167.305683 45.451142 1010.610000
-167.646906 37.811750 1010.610000
-166.878715 31.031642 1010.610000
-166.397492 23.908812 1010.610000
-165.415935 16.282713 1010.610000
-164.411548 7.529170 1010.610000
-164.111428 0.356859 1010.610000
-162.455688 -5.192926 1010.610000
-162.842370 -11.104394 1010.610000
-160.650841 -18.743021 1010.610000
-158.856844 -26.631137 1010.610000
-157.775125 -32.691239 1010.610000
-154.588379 -37.746890 1010.610000
-153.201927 -43.164846 1010.610000
-150.923022 -51.224308 1010.610000
-148.504357 -59.210352 1010.610000
-145.153851 -70.296906 1010.610000
-139.889332 -83.132407 1010.610000
-133.634732 -93.551540 1010.610000
-124.661496 -103.265159 1010.610000
-115.367692 -112.316529 1010.610000
-106.427969 -117.465132 1010.610000
-96.832245 -121.497284 1010.610000
-89.060884 -124.690636 1010.610000
-75.049324 -127.607518 1010.610000
-62.595598 -128.586484 1010.610000
-50.747811 -128.408685 1010.610000
-39.830333 -126.633111 1010.610000
-28.051678 -123.031160 1010.610000
-17.908876 -118.514900 1010.610000
-8.397875 -112.793232 1010.610000
1.370714 -105.317647 1010.610000
9.323477 -97.677789 1010.610000
15.818294 -87.059884 1010.610000
20.643241 -77.191820 1010.610000
24.671725 -67.811416 1010.610000
28.093801 -60.017005 1010.610000
31.137460 -52.697025 1010.610000
34.070793 -45.427283 1010.610000
36.553862 -39.222252 1010.610000
38.329624 -31.611034 1010.610000
39.942828 -22.907388 1010.610000
41.121778 -15.314482 1010.610000
43.237180 -7.864173 1010.610000
43.811943 -0.173863 1010.610000
44.188815 7.529170 1010.610000
s
41.354517 7.529170 1066.610000
40.967386 16.137085 1066.610000
39.708241 24.652634 1066.610000
38.958314 33.267612 1066.610000
38.290826 42.059727 1066.610000
36.799111 49.644721 1066.610000
34.264372 58.139552 1066.610000
30.237040 66.024549 1066.610000
25.478960 73.472968 1066.610000
21.481605 78.740510 1066.610000
17.257004 84.551243 1066.610000
8.961019 93.972778 1066.610000
2.293196 101.292336 1066.610000
-5.689164 110.835108 1066.610000
-13.485926 119.548628 1066.610000
-21.383264 126.754370 1066.610000
-31.130322 133.761609 1066.610000
-41.995082 138.809602 1066.610000
-52.254330 142.296546 1066.610000
-62.033365 142.009181 1066.610000
-73.271414 142.895848 1066.610000
-82.131538 143.191280 1066.610000
-91.151854 136.525707 1066.610000
-95.585791 135.537840 1066.610000
-105.778098 135.114594 1066.610000
-116.072241 125.894470 1066.610000
-125.417469 120.292877 1066.610000
-131.577157 113.565644 1066.610000
-138.804544 100.011112 1066.610000
-144.299628 87.100697 1066.610000
-146.848293 76.876815 1066.610000
-148.352211 71.477731 1066.610000
-147.277835 60.283601 1066.610000
-147.473867 49.962974 1066.610000
-147.142578 45.823599 1066.610000
-150.771987 43.261126 1066.610000
-147.926424 37.513627 1066.610000
-148.347428 31.629783 1066.610000
-147.248844 23.162452 1066.610000
-146.418412 14.853734 1066.610000
-144.711044 7.529170 1066.610000
-145.251964 3.115360 1066.610000
-141.474205 -2.401387 1066.610000
-142.107515 -7.424521 1066.610000
-141.274612 -12.835424 1066.610000
-142.495901 -17.474568 1066.610000
-144.134424 -24.062879 1066.610000
-143.055402 -30.540286 1066.610000
-142.718935 -37.303146 1066.610000
-141.866664 -46.256579 1066.610000
-140.095865 -54.165110 1066.610000
-137.068370 -65.374469 1066.610000
-133.815192 -73.597917 1066.610000
-129.312464 -83.104546 1066.610000
-122.996909 -93.616174 1066.610000
-115.122651 -100.379901 1066.610000
-105.595197 -107.798402 1066.610000
-97.057873 -114.036076 1066.610000
-87.621060 -118.201571 1066.610000
-75.409548 -120.734035 1066.610000
-62.593623 -123.139251 1066.610000
-51.292797 -120.923430 1066.610000
-41.745323 -120.559538 1066.610000
-30.909269 -116.132326 1066.610000
-21.955469 -110.573014 1066.610000
-14.021249 -105.825386 1066.610000
-6.053464 -97.183316 1066.610000
1.620166 -88.816144 1066.610000
7.586828 -79.110849 1066.610000
14.182659 -70.464529 1066.610000
19.158193 -61.336094 1066.610000
23.027300 -54.414120 1066.610000
27.024227 -48.088470 1066.610000
29.896341 -42.348855 1066.610000
33.044765 -35.533485 1066.610000
36.307300 -27.554012 1066.610000
38.304934 -21.385069 1066.610000
39.673250 -13.948301 1066.610000
41.179074 -6.520300 1066.610000
41.746108 1.037018 1066.610000
41.354517 7.529170 1066.610000
31.529195 7.529170 1149.610000
30.989416 14.447944 1149.610000
29.906367 21.285695 1149.610000
29.718812 27.251404 1149.610000
29.289763 34.279057 1149.610000
28.222690 41.267843 1149.610000
26.342873 48.086090 1149.610000
23.938564 54.754622 1149.610000
19.938607 60.663524 1149.610000
17.506625 66.220533 1149.610000
14.419325 70.933774 1149.610000
6.200186 81.648287 1149.610000
-2.567570 89.920071 1149.610000
-11.596571 96.203776 1149.610000
-22.304755 105.157606 1149.610000
-31.465716 113.752275 1149.610000
-41.437585 119.334885 1149.610000
-51.396092 126.374319 1149.610000
-63.521410 132.052441 1149.610000
-74.412652 133.731841 1149.610000
-84.312953 136.251639 1149.610000
-94.522897 136.218356 1149.610000
-103.313893 134.109933 1149.610000
-112.198697 132.767901 1149.610000
-123.431871 127.474047 1149.610000
-135.729444 119.899518 1149.610000
-145.604280 111.107271 1149.610000
-153.624725 104.146667 1149.610000
-159.593828 95.084362 1149.610000
-164.016675 83.888296 1149.610000
-167.039820 71.679154 1149.610000
-170.190814 66.925902 1149.610000
-169.711789 59.117880 1149.610000
-170.139855 52.371647 1149.610000
-169.775426 45.637817 1149.610000
-170.112824 39.551739 1149.610000
-168.198110 33.023250 1149.610000
-166.381833 26.979883 1149.610000
-165.253015 21.438935 1149.610000
-162.634312 15.280705 1149.610000
-159.300832 7.529170 1149.610000
-154.774644 1.812033 1149.610000
-152.825877 -3.036170 1149.610000
-152.506380 -11.327712 1149.610000
-153.822485 -16.458286 1149.610000
-156.622531 -21.813613 1149.610000
-156.601070 -26.408551 1149.610000
-159.222864 -30.907147 1149.610000
-158.937574 -35.925595 1149.610000
-160.070628 -43.085067 1149.610000
-160.261564 -48.906044 1149.610000
-158.947280 -65.366247 1149.610000
-155.359645 -79.740690 1149.610000
-149.785480 -92.771924 1149.610000
-141.721703 -104.543632 1149.610000
-133.380677 -113.206237 1149.610000
-122.609693 -120.851138 1149.610000
-112.766794 -125.166704 1149.610000
-99.924573 -127.622354 1149.610000
-88.132755 -129.921312 1149.610000
-74.914110 -130.240273 1149.610000
-60.813035 -127.070556 1149.610000
-48.473957 -122.615037 1149.610000
-36.881567 -116.794103 1149.610000
-26.621610 -108.849813 1149.610000
-17.580145 -102.057349 1149.610000
-9.173249 -91.068299 1149.610000
-1.650226 -81.854382 1149.610000
5.346387 -71.236307 1149.610000
9.421802 -62.722179 1149.610000
15.316004 -52.475304 1149.610000
18.890789 -47.321478 1149.610000
21.468273 -40.780215 1149.610000
23.765118 -35.255856 1149.610000
26.222866 -29.780243 1149.610000
27.459408 -22.863089 1149.610000
29.203741 -17.153267 1149.610000
30.033416 -11.240806 1149.610000
30.168755 -5.265832 1149.610000
30.867553 1.607138 1149.610000
31.529195 7.529170 1149.610000
s
10.031298 7.529170 1215.610000
10.108827 11.556471 1215.610000
9.835617 16.384600 1215.610000
11.030729 21.452364 1215.610000
10.160010 26.306097 1215.610000
10.510032 31.487909 1215.610000
10.093851 36.607723 1215.610000
9.180630 42.580627 1215.610000
7.918671 47.622106 1215.610000
6.452865 53.643291 1215.610000
5.669274 58.199826 1215.610000
2.116393 72.174880 1215.610000
-2.385463 85.895419 1215.610000
-9.692856 100.246455 1215.610000
-17.848114 110.404152 1215.610000
-25.961830 117.768427 1215.610000
-36.759295 125.727903 1215.610000
-49.825631 132.446843 1215.610000
-65.022733 137.483445 1215.610000
-80.965740 141.116338 1215.610000
-97.624169 143.154982 1215.610000
-112.328374 138.326039 1215.610000
-126.774882 137.182857 1215.610000
-141.683703 135.239201 1215.610000
-155.344872 129.376621 1215.610000
-164.926275 121.486350 1215.610000
-173.002000 113.924811 1215.610000
-178.062246 105.148968 1215.610000
-182.980415 93.662248 1215.610000
-185.413139 81.199220 1215.610000
-187.290634 68.447692 1215.610000
-187.462977 61.198219 1215.610000
-187.384006 54.390588 1215.610000
-184.790951 47.967788 1215.610000
-184.800832 42.881043 1215.610000
-182.999154 37.407519 1215.610000
-182.026306 32.435733 1215.610000
-182.882493 27.113172 1215.610000
-181.045931 20.551497 1215.610000
-178.568133 15.118895 1215.610000
-176.335833 7.529170 1215.610000
-173.406202 1.946572 1215.610000
-169.769491 -3.231418 1215.610000
-170.942048 -8.130519 1215.610000
-168.654429 -11.652493 1215.610000
-173.349817 -19.490916 1215.610000
-171.475416 -21.500416 1215.610000
-174.620239 -27.050938 1215.610000
-177.474705 -34.920343 1215.610000
-175.019800 -37.775463 1215.610000
-178.453454 -44.939567 1215.610000
-176.997267 -61.394817 1215.610000
-175.303368 -79.354968 1215.610000
-172.293152 -96.189903 1215.610000
-165.268560 -113.435949 1215.610000
-153.873447 -127.397738 1215.610000
-145.061547 -133.813944 1215.610000
-130.410111 -141.057002 1215.610000
-115.915243 -144.859276 1215.610000
-99.775615 -147.330913 1215.610000
-88.735680 -145.627435 1215.610000
-74.284946 -142.192717 1215.610000
-57.947245 -136.990465 1215.610000
-42.718016 -129.922115 1215.610000
-29.628953 -122.419287 1215.610000
-17.336482 -111.808477 1215.610000
-6.994206 -99.778061 1215.610000
1.529706 -87.032665 1215.610000
6.984595 -74.130720 1215.610000
8.368768 -60.667702 1215.610000
8.409613 -44.812919 1215.610000
7.971835 -38.380792 1215.610000
7.746864 -31.551072 1215.610000
7.819708 -26.102223 1215.610000
8.528189 -21.927961 1215.610000
7.850743 -17.425125 1215.610000
8.026018 -13.285342 1215.610000
10.356701 -8.779002 1215.610000
10.580173 -4.676558 1215.610000
9.909974 1.899670 1215.610000
10.031298 7.529170 1215.610000
s
-57.682935 7.567503 1396.818774
-58.309754 16.907675 1399.706002
-59.957101 28.206747 1410.010486
-64.817032 43.717189 1425.362525
-78.644015 58.423002 1441.380729
-99.862452 63.986990 1452.358471
-99.862452 63.986990 1452.358471
-116.424144 61.615215 1454.164454
-130.410371 53.392148 1454.665612
-137.827483 38.949110 1457.784483
-141.448846 22.583143 1459.434865
-142.893825 7.131118 1459.210441
-141.447531 -9.396474 1460.044676
-136.661054 -28.254749 1459.239003
-126.037646 -44.251365 1459.382612
-108.833166 -51.602500 1461.787016
-89.664778 -54.399995 1457.739969
-89.664778 -54.399995 1457.739969
-70.028343 -49.080380 1444.606837
-57.673707 -32.715318 1427.124257
-55.545983 -13.795939 1411.279719
-57.481808 -1.301468 1400.624997
-57.682935 7.567503 1396.818774
s
-26.566123 7.236104 1441.186825
-29.259862 23.437122 1444.437599
-35.636415 39.373473 1454.820361
-45.372469 52.657014 1469.197591
-58.201340 61.924134 1484.362092
-75.871537 65.851541 1498.298096
-75.871537 65.851541 1498.298096
-94.027272 62.415152 1505.009551
-112.602196 52.607232 1507.435443
-123.155925 39.748659 1508.586376
-131.388670 25.231611 1508.594871
-136.932549 8.314362 1504.623289
-135.954256 -11.170421 1505.397360
-125.833330 -26.966610 1505.854384
-112.680409 -39.286908 1504.464145
-96.521358 -49.471102 1501.024133
-76.981711 -54.264065 1496.317702
-76.981711 -54.264065 1496.317702
-58.694984 -50.213891 1486.044522
-43.531729 -40.076056 1472.556447
-32.987206 -26.141810 1458.272331
-27.530366 -10.000806 1446.539111
-26.566123 7.236104 1441.186825
s
10.031298 7.529170 1215.610000
10.108827 11.556471 1215.610000
9.835617 16.384600 1215.610000
11.030729 21.452364 1215.610000
10.160010 26.306097 1215.610000
10.510032 31.487909 1215.610000
10.093851 36.607723 1215.610000
9.180630 42.580627 1215.610000
7.918671 47.622106 1215.610000
6.452865 53.643291 1215.610000
5.669274 58.199826 1215.610000
2.116393 72.174880 1215.610000
-2.385463 85.895419 1215.610000
-9.692856 100.246455 1215.610000
-17.848114 110.404152 1215.610000
-25.961830 117.768427 1215.610000
-36.759295 125.727903 1215.610000
-49.825631 132.446843 1215.610000
-65.022733 137.483445 1215.610000
-80.965740 141.116338 1215.610000
-97.624169 143.154982 1215.610000
-112.328374 138.326039 1215.610000
-126.774882 137.182857 1215.610000
-141.683703 135.239201 1215.610000
-155.344872 129.376621 1215.610000
-164.926275 121.486350 1215.610000
-173.002000 113.924811 1215.610000
-178.062246 105.148968 1215.610000
-182.980415 93.662248 1215.610000
-185.413139 81.199220 1215.610000
-187.290634 68.447692 1215.610000
-187.462977 61.198219 1215.610000
-187.384006 54.390588 1215.610000
-184.790951 47.967788 1215.610000
-184.800832 42.881043 1215.610000
-182.999154 37.407519 1215.610000
-182.026306 32.435733 1215.610000
-182.882493 27.113172 1215.610000
-181.045931 20.551497 1215.610000
-178.568133 15.118895 1215.610000
-176.335833 7.529170 1215.610000
-173.406202 1.946572 1215.610000
-169.769491 -3.231418 1215.610000
-170.942048 -8.130519 1215.610000
-168.654429 -11.652493 1215.610000
-173.349817 -19.490916 1215.610000
-171.475416 -21.500416 1215.610000
-174.620239 -27.050938 1215.610000
-177.474705 -34.920343 1215.610000
-175.019800 -37.775463 1215.610000
-178.453454 -44.939567 1215.610000
-176.997267 -61.394817 1215.610000
-175.303368 -79.354968 1215.610000
-172.293152 -96.189903 1215.610000
-165.268560 -113.435949 1215.610000
-153.873447 -127.397738 1215.610000
-145.061547 -133.813944 1215.610000
-130.410111 -141.057002 1215.610000
-115.915243 -144.859276 1215.610000
-99.775615 -147.330913 1215.610000
-88.735680 -145.627435 1215.610000
-74.284946 -142.192717 1215.610000
-57.947245 -136.990465 1215.610000
-42.718016 -129.922115 1215.610000
-29.628953 -122.419287 1215.610000
-17.336482 -111.808477 1215.610000
-6.994206 -99.778061 1215.610000
1.529706 -87.032665 1215.610000
6.984595 -74.130720 1215.610000
8.368768 -60.667702 1215.610000
8.409613 -44.812919 1215.610000
7.971835 -38.380792 1215.610000
7.746864 -31.551072 1215.610000
7.819708 -26.102223 1215.610000
8.528189 -21.927961 1215.610000
7.850743 -17.425125 1215.610000
8.026018 -13.285342 1215.610000
10.356701 -8.779002 1215.610000
10.580173 -4.676558 1215.610000
9.909974 1.899670 1215.610000
10.031298 7.529170 1215.610000
s
-81.773778 7.529170 776.546000
-50.199241 7.529170 789.900667
-18.624703 7.529170 803.255333
12.949834 7.529170 816.610000
21.422373 7.529170 824.610000
28.112006 7.529170 833.610000
31.851372 7.529170 841.610000
35.105480 7.529170 850.610000
36.645864 7.529170 858.610000
37.554668 7.529170 867.610000
38.094572 7.529170 875.610000
38.648293 7.529170 884.610000
39.218749 7.529170 892.610000
39.671265 7.529170 915.610000
41.043725 7.529170 939.610000
42.307626 7.529170 962.610000
44.402333 7.529170 986.610000
44.188815 7.529170 1010.610000
41.766878 7.529170 1021.610000
41.131900 7.529170 1032.610000
41.632111 7.529170 1043.610000
41.652516 7.529170 1054.610000
41.354517 7.529170 1066.610000
41.247595 7.529170 1074.610000
41.114535 7.529170 1082.610000
40.176191 7.529170 1090.610000
40.099408 7.529170 1099.610000
39.191194 7.529170 1107.610000
37.458073 7.529170 1115.610000
36.632040 7.529170 1124.610000
35.294965 7.529170 1132.610000
32.875443 7.529170 1140.610000
31.529195 7.529170 1149.610000
28.447899 7.529170 1157.610000
25.797154 7.529170 1165.610000
22.540126 7.529170 1173.610000
19.809208 7.529170 1182.610000
17.596876 7.529170 1190.610000
14.988895 7.529170 1198.610000
12.420715 7.529170 1206.610000
10.031298 7.529170 1215.610000
-6.806298 7.529170 1268.610000
-6.806298 7.529170 1268.610000
-6.806298 7.529170 1268.610000
-6.806298 7.529170 1268.610000
-6.806298 7.529170 1268.610000
-6.806298 7.529170 1268.610000
-6.806298 7.529170 1268.610000
-6.806298 7.529170 1268.610000
-12.368066 7.529170 1287.610000
-17.699253 7.529170 1305.610000
-23.030440 7.529170 1323.610000
-29.361739 7.529170 1342.610000
-38.979295 7.529170 1359.610000
-48.278069 7.529170 1376.610000
-57.682935 7.567503 1396.818774
-57.682935 7.567503 1396.818774
-57.682935 7.567503 1396.818774
-57.682935 7.567503 1396.818774
-57.682935 7.567503 1396.818774
-57.682935 7.567503 1396.818774
-57.249523 7.312028 1405.610000
-53.686908 7.280937 1414.610000
-48.114696 7.232309 1423.610000
-42.852023 7.186383 1432.610000
-26.566123 7.236104 1441.186825
s
7.602534 119.820560 776.546000
7.097540 119.822493 789.900667
6.592546 119.824427 803.255333
6.087552 119.826360 816.610000
5.798852 118.511846 824.610000
5.202956 116.948965 833.610000
4.553345 115.534839 841.610000
3.434350 113.820430 850.610000
2.576677 112.338267 858.610000
0.614536 110.388145 867.610000
1.699723 109.453592 875.610000
1.663959 108.066176 884.610000
2.325784 107.025893 892.610000
5.850450 104.502615 915.610000
11.380367 102.453328 939.610000
14.106688 99.663721 962.610000
17.579930 96.965911 986.610000
19.065663 93.708128 1010.610000
18.667106 91.927359 1021.610000
16.800852 89.657785 1032.610000
16.854218 87.978930 1043.610000
17.448643 86.421918 1054.610000
17.257004 84.551243 1066.610000
16.922511 83.205147 1074.610000
16.633236 81.869646 1082.610000
16.018733 80.492177 1090.610000
15.653133 78.976375 1099.610000
15.509496 77.724008 1107.610000
15.471206 76.480183 1115.610000
15.296686 75.029811 1124.610000
15.912737 73.988204 1132.610000
15.384487 72.601696 1140.610000
14.419325 70.933774 1149.610000
14.014319 69.584087 1157.610000
13.120753 68.088763 1165.610000
12.260387 66.605084 1173.610000
11.234620 64.899488 1182.610000
10.145299 63.376304 1190.610000
8.532468 61.669643 1198.610000
7.213922 60.066035 1206.610000
5.669274 58.199826 1215.610000
-1.806827 72.030036 1275.610000
-1.806827 72.030036 1275.610000
-1.806827 72.030036 1275.610000
-1.806827 72.030036 1275.610000
-1.806827 72.030036 1275.610000
-1.806827 72.030036 1275.610000
-1.806827 72.030036 1275.610000
-1.806827 72.030036 1275.610000
-7.503461 75.483968 1289.610000
-15.186257 79.721330 1307.639744
-22.869054 83.958692 1325.669488
-36.536516 88.958692 1344.919454
-52.678090 94.958692 1364.244797
-65.318513 97.958692 1378.251725
-72.832496 100.958692 1388.914594
-82.426976 103.158704 1397.636462
-93.917882 105.358685 1404.213291
-106.522309 107.558698 1411.163512
-121.168488 109.758679 1419.598663
-138.451743 111.784014 1421.182584
s
-65.098983 190.005661 776.546000
-68.835410 190.429201 789.900667
-72.571836 190.852741 803.255333
-76.308263 191.276281 816.610000
-77.561289 189.343938 824.610000
-78.518701 189.340997 833.610000
-79.042011 190.271820 841.610000
-79.321070 190.982158 850.610000
-79.349518 189.811411 858.610000
-79.134824 188.231438 867.610000
-78.753788 187.327513 875.610000
-78.154055 185.969336 884.610000
-77.447754 186.840226 892.610000
-75.251677 181.328580 915.610000
-73.000276 174.763579 939.610000
-71.331377 169.983829 962.610000
-70.422548 164.167436 986.610000
-70.376878 157.651290 1010.610000
-70.716980 153.498580 1021.610000
-71.154209 150.178119 1032.610000
-71.693730 147.546337 1043.610000
-72.421294 144.569448 1054.610000
-73.271414 142.895848 1066.610000
-73.935686 142.073145 1074.610000
-74.780955 139.516491 1082.610000
-75.670716 137.447361 1090.610000
-76.712619 136.033496 1099.610000
-77.684662 136.199270 1107.610000
-78.815239 134.142837 1115.610000
-80.151354 132.485838 1124.610000
-81.371826 134.377699 1132.610000
-82.711860 135.536716 1140.610000
-84.312953 136.251639 1149.610000
-85.809499 137.080505 1157.610000
-87.376062 138.174731 1165.610000
-88.970905 138.960596 1173.610000
-90.839742 140.313213 1182.610000
-92.512308 141.236907 1190.610000
-94.083762 140.930866 1198.610000
-95.740600 141.823437 1206.610000
-97.624169 143.154982 1215.610000
-110.161022 159.201455 1282.610000
-110.161022 159.201455 1282.610000
-110.161022 159.201455 1282.610000
-110.161022 159.201455 1282.610000
-110.161022 159.201455 1282.610000
-110.161022 159.201455 1282.610000
-110.161022 159.201455 1282.610000
-110.161022 159.201455 1282.610000
s
-173.065348 109.155366 776.546000
-177.018484 108.936017 789.900667
-180.971621 108.716668 803.255333
-184.924757 108.497319 816.610000
-188.315313 108.169149 824.610000
-192.509212 107.938594 833.610000
-195.030076 107.376670 841.610000
-197.741093 107.073063 850.610000
-200.182630 106.651760 858.610000
-200.695074 105.822452 867.610000
-202.548846 105.271083 875.610000
-203.941603 104.630925 884.610000
-204.040856 103.858166 892.610000
-202.455400 101.241568 915.610000
-197.089943 97.917769 939.610000
-188.921862 94.228806 962.610000
-178.330941 90.188134 986.610000
-163.720469 85.302117 1010.610000
-154.791938 82.672580 1021.610000
-150.936473 80.990484 1032.610000
-150.310512 79.772981 1043.610000
-146.123234 77.255364 1054.610000
-146.848293 76.876815 1066.610000
-145.480788 75.838062 1074.610000
-145.677217 75.063622 1082.610000
-147.778207 74.594141 1090.610000
-150.744491 74.175704 1099.610000
-153.180421 73.895571 1107.610000
-156.813214 73.530583 1115.610000
-159.445788 73.044466 1124.610000
-161.902788 72.631577 1132.610000
-165.580754 72.721023 1140.610000
-167.039820 71.679154 1149.610000
-169.946128 71.399355 1157.610000
-172.587296 71.059353 1165.610000
-174.631824 70.546145 1173.610000
-177.178010 70.047728 1182.610000
-178.864752 69.506631 1190.610000
-181.832646 69.182397 1198.610000
-183.825107 68.690382 1206.610000
-187.290634 68.447692 1215.610000
-202.207129 83.031946 1277.610000
-202.207129 83.031946 1277.610000
-202.207129 83.031946 1277.610000
-202.207129 83.031946 1277.610000
-202.207129 83.031946 1277.610000
-202.207129 83.031946 1277.610000
-202.207129 83.031946 1277.610000
-202.207129 83.031946 1277.610000
-201.840832 85.692432 1289.610000
-202.147588 89.287447 1305.610000
-200.308011 93.958692 1324.810843
-197.673969 96.958692 1342.580659
-193.474450 100.958692 1359.404305
-186.778568 103.958692 1376.934075
-180.828507 105.958692 1386.983964
-175.071590 107.158704 1396.533010
-167.272633 108.358685 1404.559457
-157.201044 109.558698 1409.386323
-148.352287 110.758679 1416.861551
-138.451743 111.784014 1421.182584
s
-81.773778 7.529170 776.546000
-108.687093 7.529170 789.900667
-135.600409 7.529170 803.255333
-162.513724 7.529170 816.610000
-169.165266 7.529170 824.610000
-175.719762 7.529170 833.610000
-180.411504 7.529170 841.610000
-184.382503 7.529170 850.610000
-188.426575 7.529170 858.610000
-191.108805 7.529170 867.610000
-192.828599 7.529170 875.610000
-195.075503 7.529170 884.610000
-196.018191 7.529170 892.610000
-196.966098 7.529170 915.610000
-194.162808 7.529170 939.610000
-186.293154 7.529170 962.610000
-174.049772 7.529170 986.610000
-164.411548 7.529170 1010.610000
-159.571243 7.529170 1021.610000
-152.653655 7.529170 1032.610000
-149.805648 7.529170 1043.610000
-148.900114 7.529170 1054.610000
-144.711044 7.529170 1066.610000
-143.790682 7.529170 1074.610000
-143.962736 7.529170 1082.610000
-143.540886 7.529170 1090.610000
-146.143471 7.529170 1099.610000
-147.367642 7.529170 1107.610000
-149.720903 7.529170 1115.610000
-151.857966 7.529170 1124.610000
-154.033392 7.529170 1132.610000
-157.322286 7.529170 1140.610000
-159.300832 7.529170 1149.610000
-161.664943 7.529170 1157.610000
-163.515877 7.529170 1165.610000
-165.557498 7.529170 1173.610000
-167.848865 7.529170 1182.610000
-170.032855 7.529170 1190.610000
-172.943389 7.529170 1198.610000
-174.461649 7.529170 1206.610000
-176.335833 7.529170 1215.610000
-182.429826 7.529170 1270.610000
-182.429826 7.529170 1270.610000
-182.429826 7.529170 1270.610000
-182.429826 7.529170 1270.610000
-182.429826 7.529170 1270.610000
-182.429826 7.529170 1270.610000
-182.429826 7.529170 1270.610000
-182.429826 7.529170 1270.610000
-183.922716 7.529170 1288.610000
-183.288122 7.529170 1305.610000
-181.700130 7.529170 1322.610000
-181.270545 7.529170 1337.610000
-176.973514 7.529170 1354.610000
-174.206567 7.529170 1371.610000
-171.166491 7.529170 1386.422286
-168.411552 7.758695 1397.105365
-164.531596 7.558698 1409.194396
-158.556945 7.358685 1421.388272
-151.208871 7.158688 1435.618455
-142.893825 7.131118 1459.210441
-100.393221 -48.674513 1468.610000
-18.032730 -39.901453 1477.610000
-4.241326 63.087718 1486.610000
-98.743336 61.863914 1495.610000
-136.932549 8.314362 1504.623289
s
-155.254372 -77.571427 776.546000
-160.350500 -77.138325 789.900667
-165.446629 -76.705224 803.255333
-170.542757 -76.272122 816.610000
-174.407078 -75.806326 824.610000
-178.877838 -75.471364 833.610000
-182.057570 -75.083249 841.610000
-184.997155 -74.539552 850.610000
-187.220073 -74.071480 858.610000
-189.336051 -73.492524 867.610000
-191.316423 -73.089625 875.610000
-192.248906 -72.338691 884.610000
-192.275915 -71.702881 892.610000
-190.169283 -69.715540 915.610000
-184.664825 -67.413702 939.610000
-174.834706 -64.887451 962.610000
-161.553041 -62.040067 986.610000
-148.504357 -59.210352 1010.610000
-145.915291 -58.150112 1021.610000
-142.908551 -57.033877 1032.610000
-139.710232 -55.951332 1043.610000
-139.167231 -54.965567 1054.610000
-140.095865 -54.165110 1066.610000
-141.667324 -53.640649 1074.610000
-143.473644 -53.098073 1082.610000
-145.626959 -52.617181 1090.610000
-147.864145 -52.038826 1099.610000
-149.688125 -51.530429 1107.610000
-151.689658 -51.029680 1115.610000
-154.175470 -50.514324 1124.610000
-155.833188 -49.957939 1132.610000
-157.325476 -49.299246 1140.610000
-160.261564 -48.906044 1149.610000
-161.498965 -48.309770 1157.610000
-163.886477 -47.878201 1165.610000
-166.730917 -47.438176 1173.610000
-168.843208 -46.856764 1182.610000
-171.968451 -46.525595 1190.610000
-173.397242 -45.874992 1198.610000
-175.372588 -45.397436 1206.610000
-178.453454 -44.939567 1215.610000
-183.357814 -62.608764 1263.610000
-183.357814 -62.608764 1263.610000
-183.357814 -62.608764 1263.610000
-183.357814 -62.608764 1263.610000
-183.357814 -62.608764 1263.610000
-183.357814 -62.608764 1263.610000
-183.357814 -62.608764 1263.610000
-183.357814 -62.608764 1263.610000
-187.737927 -70.010145 1283.610000
-189.907117 -78.150578 1305.610000
-187.879364 -85.041308 1323.731849
-185.820468 -91.041308 1341.543612
-181.672359 -98.041308 1361.028518
-174.522080 -104.041308 1377.206894
-165.546826 -109.041308 1387.971164
-157.672153 -111.241305 1397.990805
-147.104777 -113.441310 1405.282634
-135.126175 -115.641307 1410.503236
-122.833708 -117.841312 1418.090877
-108.229745 -120.124955 1419.649571
s
-71.269103 -163.421669 776.546000
-69.996324 -162.696007 789.900667
-68.723546 -161.970344 803.255333
-67.450767 -161.244682 816.610000
-67.111011 -159.675571 824.610000
-66.860933 -157.787417 833.610000
-66.682094 -156.644777 841.610000
-66.558642 -155.402315 850.610000
-66.339110 -156.002763 858.610000
-66.364633 -154.305535 867.610000
-66.459414 -152.299384 875.610000
-66.490641 -150.915168 884.610000
-66.444849 -150.363628 892.610000
-66.243342 -147.813945 915.610000
-65.420655 -146.172784 939.610000
-64.262476 -142.560505 962.610000
-63.151286 -136.482836 986.610000
-62.595598 -128.586484 1010.610000
-62.394960 -126.082893 1021.610000
-62.248353 -124.378375 1032.610000
-62.402127 -122.005803 1043.610000
-62.249272 -123.208615 1054.610000
-62.593623 -123.139251 1066.610000
-63.129020 -122.387758 1074.610000
-63.919576 -121.054039 1082.610000
-64.764537 -120.605195 1090.610000
-66.020814 -119.564628 1099.610000
-67.116155 -120.366753 1107.610000
-68.364639 -121.476066 1115.610000
-69.943652 -122.877997 1124.610000
-71.403652 -125.216361 1132.610000
-73.028642 -127.064010 1140.610000
-74.914110 -130.240273 1149.610000
-76.710697 -132.480555 1157.610000
-78.575824 -133.738390 1165.610000
-80.413382 -136.083996 1173.610000
-82.451903 -138.282283 1182.610000
-84.164769 -137.998880 1190.610000
-85.797555 -140.799279 1198.610000
-87.247915 -142.050916 1206.610000
-88.735680 -145.627435 1215.610000
-90.468455 -151.548695 1254.610000
-90.468455 -151.548695 1254.610000
-90.468455 -151.548695 1254.610000
-90.468455 -151.548695 1254.610000
-90.468455 -151.548695 1254.610000
-90.468455 -151.548695 1254.610000
-90.468455 -151.548695 1254.610000
-90.468455 -151.548695 1254.610000
s
23.600745 -84.306933 776.546000
23.395121 -85.110411 789.900667
23.189498 -85.913890 803.255333
22.983874 -86.717368 816.610000
22.767489 -85.857462 824.610000
21.872597 -84.802661 833.610000
21.075985 -83.856945 841.610000
20.712210 -82.944018 850.610000
20.008939 -82.033400 858.610000
21.565339 -81.433650 867.610000
20.444800 -80.419361 875.610000
19.078921 -79.217076 884.610000
20.042411 -78.679636 892.610000
21.793849 -76.706445 915.610000
22.600703 -74.469923 939.610000
24.000092 -72.400139 962.610000
24.493201 -70.121608 986.610000
24.671725 -67.811416 1010.610000
22.744734 -66.395493 1021.610000
21.036705 -64.982039 1032.610000
20.286230 -63.787996 1043.610000
19.511026 -62.576875 1054.610000
19.158193 -61.336094 1066.610000
18.943255 -60.513210 1074.610000
18.655551 -59.656914 1082.610000
18.632028 -58.874811 1090.610000
17.680816 -57.822964 1099.610000
17.307810 -57.025707 1107.610000
17.426852 -56.214990 1115.610000
16.894978 -55.212763 1124.610000
17.342815 -54.504536 1132.610000
16.270116 -53.530751 1140.610000
15.316004 -52.475304 1149.610000
14.676491 -51.616569 1157.610000
14.331757 -50.746552 1165.610000
13.183691 -49.727503 1173.610000
12.056224 -48.660605 1182.610000
10.505345 -47.605081 1190.610000
9.282178 -46.605553 1198.610000
7.932000 -45.492781 1206.610000
8.409613 -44.812919 1215.610000
8.975673 -62.093837 1262.610000
8.975673 -62.093837 1262.610000
8.975673 -62.093837 1262.610000
8.975673 -62.093837 1262.610000
8.975673 -62.093837 1262.610000
8.975673 -62.093837 1262.610000
8.975673 -62.093837 1262.610000
8.975673 -62.093837 1262.610000
2.580733 -69.144962 1281.610000
-4.967916 -77.630729 1304.610000
-15.469247 -84.836019 1324.628978
-25.970577 -92.041308 1344.647955
-37.416866 -99.041308 1361.933754
-45.729180 -104.041308 1376.765872
-55.434728 -109.041308 1388.687864
-65.350283 -111.241305 1396.150933
-74.358068 -113.441310 1404.082732
-85.570201 -115.641307 1408.822028
-96.797456 -117.841312 1414.164855
-108.229745 -120.124955 1419.649571
s
