-127.722 -157.065 1256.87
-128.724 -158.206 1257.3
-129.695 -159.368 1257.74
-130.633 -160.55 1258.19
-131.536 -161.755 1258.65
-132.402 -162.981 1259.13
-133.228 -164.23 1259.61
-134.011 -165.501 1260.11
-134.749 -166.793 1260.62
-135.438 -168.106 1261.15
-136.075 -169.44 1261.69
-136.659 -170.792 1262.23
-137.185 -172.162 1262.79
-137.65 -173.547 1263.36
-138.053 -174.947 1263.94
-138.389 -176.357 1264.53
-138.656 -177.777 1265.13
-138.851 -179.203 1265.74
-138.971 -180.632 1266.35
-139.014 -182.061 1266.97
-138.979 -183.487 1267.59
-138.867 -184.904 1268.21
-138.68 -186.31 1268.83
-138.421 -187.702 1269.45
-138.092 -189.075 1270.07
-137.697 -190.427 1270.68
-137.238 -191.756 1271.29
-136.719 -193.058 1271.88
-136.142 -194.332 1272.47
-135.511 -195.576 1273.05
-134.829 -196.787 1273.62
-134.1 -197.966 1274.18
-133.328 -199.11 1274.73
-132.514 -200.218 1275.26
-131.663 -201.291 1275.79
-130.776 -202.328 1276.29
-129.855 -203.33 1276.79
-128.902 -204.296 1277.27
-127.919 -205.228 1277.74
-126.907 -206.124 1278.19
-125.867 -206.986 1278.63
-124.803 -207.813 1279.06
-123.713 -208.607 1279.48
-122.601 -209.368 1279.88
-121.467 -210.096 1280.27
-120.311 -210.791 1280.65
-119.136 -211.455 1281.01
-117.941 -212.087 1281.37
-116.73 -212.687 1281.7
-115.506 -213.253 1282.03
-114.274 -213.784 1282.34
-113.036 -214.278 1282.64
-111.799 -214.735 1282.92
-110.565 -215.155 1283.18
-109.339 -215.539 1283.43
-108.126 -215.886 1283.66
-106.929 -216.199 1283.87
-105.753 -216.477 1284.07
-104.602 -216.724 1284.25
-103.479 -216.94 1284.42
-102.388 -217.129 1284.57
-101.333 -217.292 1284.71
-100.317 -217.433 1284.84
-99.3439 -217.554 1284.95
-98.4157 -217.658 1285.06
-97.5307 -217.747 1285.16
-96.6859 -217.826 1285.25
-95.8779 -217.895 1285.33
-95.1036 -217.957 1285.41
-94.3597 -218.013 1285.48
-93.6431 -218.064 1285.55
-92.9506 -218.112 1285.61
-92.2789 -218.156 1285.68
-91.625 -218.198 1285.74
-90.9857 -218.238 1285.8
-90.3579 -218.276 1285.86
-89.7385 -218.311 1285.91
-89.1244 -218.344 1285.97
-88.5127 -218.374 1286.02
-87.9004 -218.401 1286.07
-87.2844 -218.423 1286.12
-86.6619 -218.439 1286.17
-86.03 -218.45 1286.21
-85.3858 -218.452 1286.26
-84.7265 -218.446 1286.3
-84.0495 -218.428 1286.34
-83.3521 -218.398 1286.37
-82.6317 -218.354 1286.4
-81.8859 -218.292 1286.42
-81.1124 -218.211 1286.43
-80.309 -218.109 1286.44
-79.4752 -217.981 1286.44
-78.6153 -217.829 1286.43
-77.7344 -217.652 1286.41
-76.8378 -217.45 1286.38
-75.9304 -217.223 1286.34
-75.0172 -216.973 1286.3
-74.1033 -216.7 1286.24
-73.1933 -216.407 1286.17
-72.2918 -216.095 1286.09
-71.4034 -215.767 1286.01
-70.5322 -215.425 1285.92
-69.6822 -215.072 1285.82
-68.8574 -214.712 1285.72
-68.0611 -214.348 1285.61
-67.2969 -213.984 1285.51
-66.5677 -213.625 1285.4
-65.8759 -213.273 1285.29
-65.2196 -212.93 1285.18
-64.5958 -212.596 1285.08
-64.0013 -212.272 1284.98
-63.4333 -211.955 1284.88
-62.8889 -211.647 1284.78
-62.3653 -211.345 1284.68
-61.8599 -211.05 1284.59
-61.3701 -210.759 1284.5
-60.8934 -210.473 1284.4
-60.4274 -210.188 1284.31
-59.9698 -209.904 1284.22
-59.5184 -209.62 1284.12
-59.0711 -209.333 1284.03
-58.6257 -209.041 1283.93
-58.1804 -208.743 1283.83
-57.7331 -208.437 1283.73
-57.2822 -208.12 1283.62
-56.8259 -207.79 1283.51
-56.3628 -207.445 1283.39
-55.8934 -207.084 1283.26
-55.42 -206.707 1283.13
-54.9449 -206.316 1282.99
-54.4704 -205.91 1282.85
-53.9988 -205.491 1282.69
-53.5323 -205.06 1282.54
-53.073 -204.617 1282.38
-52.6231 -204.165 1282.21
-52.1846 -203.703 1282.04
-51.7595 -203.235 1281.86
-51.3497 -202.761 1281.68
-50.957 -202.282 1281.5
-50.5826 -201.801 1281.32
-50.2258 -201.319 1281.13
-49.8856 -200.836 1280.95
-49.5607 -200.354 1280.76
-49.25 -199.872 1280.57
-48.9523 -199.393 1280.38
-48.6663 -198.917 1280.19
-48.3909 -198.443 1280.01
-48.1245 -197.974 1279.82
-47.866 -197.509 1279.63
-47.614 -197.049 1279.45
-47.3671 -196.594 1279.27
-47.1241 -196.144 1279.09
-46.8834 -195.701 1278.92
-46.6441 -195.263 1278.74
-46.4063 -194.83 1278.57
-46.1699 -194.402 1278.4
-45.9353 -193.979 1278.23
-45.7026 -193.558 1278.06
-45.4719 -193.141 1277.9
-45.2435 -192.726 1277.73
-45.0178 -192.313 1277.57
-44.795 -191.901 1277.4
-44.5755 -191.491 1277.24
-44.3596 -191.08 1277.08
-44.1477 -190.67 1276.91
-43.9402 -190.258 1276.75
-43.7376 -189.846 1276.58
-43.5402 -189.433 1276.42
-43.3486 -189.017 1276.25
-43.1632 -188.599 1276.08
-42.9846 -188.179 1275.91
-42.8132 -187.755 1275.74
-42.6497 -187.328 1275.56
-42.4946 -186.898 1275.39
-42.3485 -186.463 1275.21
-42.212 -186.024 1275.03
-42.0852 -185.582 1274.84
-41.9676 -185.137 1274.66
-41.859 -184.693 1274.47
-41.7587 -184.251 1274.29
-41.6661 -183.812 1274.1
-41.5807 -183.378 1273.92
-41.5018 -182.951 1273.74
-41.4284 -182.531 1273.56
-41.3598 -182.122 1273.39
-41.2952 -181.724 1273.22
-41.2335 -181.339 1273.06
-41.1736 -180.968 1272.9
-41.1147 -180.614 1272.75
-41.0556 -180.276 1272.61
-40.9953 -179.958 1272.47
-40.9329 -179.659 1272.35
-40.8683 -179.377 1272.23
-40.8013 -179.113 1272.12
-40.732 -178.865 1272.02
-40.6602 -178.631 1271.92
-40.586 -178.411 1271.83
-40.5096 -178.203 1271.75
-40.431 -178.006 1271.67
-40.3503 -177.819 1271.59
-40.2678 -177.64 1271.52
-40.1837 -177.469 1271.45
-40.0982 -177.304 1271.38
-40.0115 -177.145 1271.32
-39.924 -176.989 1271.26
-39.836 -176.837 1271.2
-39.7477 -176.685 1271.14
-39.6596 -176.535 1271.08
-39.5719 -176.383 1271.02
-39.4851 -176.229 1270.96
-39.3995 -176.072 1270.89
-39.3157 -175.91 1270.83
-39.2338 -175.743 1270.76
-39.1545 -175.569 1270.69
-39.0782 -175.386 1270.62
-39.0048 -175.196 1270.54
-38.9344 -174.998 1270.46
-38.8668 -174.793 1270.37
-38.8021 -174.581 1270.29
-38.7402 -174.362 1270.2
-38.6811 -174.136 1270.1
-38.6247 -173.904 1270.01
-38.5709 -173.667 1269.91
-38.5198 -173.424 1269.8
-38.4712 -173.175 1269.7
-38.4251 -172.922 1269.59
-38.3814 -172.664 1269.48
-38.34 -172.401 1269.37
-38.3008 -172.135 1269.26
-38.2638 -171.864 1269.14
-38.2288 -171.59 1269.03
-38.1958 -171.313 1268.91
-38.1645 -171.033 1268.79
-38.1351 -170.75 1268.67
-38.1072 -170.465 1268.55
-38.0807 -170.178 1268.43
-38.0555 -169.889 1268.3
-38.0315 -169.599 1268.18
-38.0085 -169.307 1268.05
-37.9863 -169.015 1267.93
-37.9648 -168.721 1267.8
-37.9437 -168.428 1267.68
-37.923 -168.134 1267.55
-37.9023 -167.841 1267.42
-37.8814 -167.548 1267.3
-37.8603 -167.255 1267.17
-37.8386 -166.964 1267.05
-37.8169 -166.673 1266.92
-37.7965 -166.382 1266.8
-37.7788 -166.088 1266.67
-37.7652 -165.791 1266.54
-37.7571 -165.489 1266.41
-37.756 -165.181 1266.28
-37.7635 -164.866 1266.14
-37.7812 -164.543 1266
-37.8106 -164.21 1265.85
-37.8534 -163.867 1265.7
-37.9114 -163.511 1265.55
-37.9863 -163.143 1265.38
-38.08 -162.762 1265.21
-38.1942 -162.365 1265.03
-38.3311 -161.954 1264.84
-38.4921 -161.526 1264.65
-38.676 -161.085 1264.44
-38.88 -160.634 1264.23
-39.1015 -160.177 1264.02
-39.3375 -159.717 1263.81
-39.585 -159.258 1263.59
-39.8408 -158.802 1263.38
-40.1015 -158.353 1263.17
-40.3637 -157.914 1262.96
-40.6237 -157.486 1262.76
-40.8779 -157.074 1262.56
-41.1228 -156.678 1262.37
-41.358 -156.299 1262.19
-41.5851 -155.934 1262.02
-41.8058 -155.58 1261.85
-42.0218 -155.236 1261.69
-42.2349 -154.9 1261.53
-42.447 -154.568 1261.37
-42.6601 -154.24 1261.21
-42.8763 -153.912 1261.06
-43.0977 -153.584 1260.9
-43.3264 -153.254 1260.74
-43.5648 -152.919 1260.58
-43.8151 -152.578 1260.42
-44.0798 -152.23 1260.25
-44.3614 -151.873 1260.08
-44.6623 -151.504 1259.9
-44.9854 -151.124 1259.71
-45.3333 -150.731 1259.52
-45.7088 -150.324 1259.32
-46.1148 -149.901 1259.11
-46.5545 -149.463 1258.89
-47.0306 -149.008 1258.66
-47.5448 -148.537 1258.42
-48.0972 -148.053 1258.18
-48.6879 -147.556 1257.92
-49.3169 -147.048 1257.66
-49.9843 -146.532 1257.39
-50.69 -146.01 1257.12
-51.434 -145.482 1256.84
-52.2163 -144.951 1256.56
-53.0365 -144.42 1256.28
-53.8946 -143.889 1255.99
-54.7901 -143.362 1255.7
-55.7229 -142.839 1255.41
-56.6924 -142.323 1255.13
-57.6982 -141.817 1254.84
-58.7396 -141.321 1254.56
-59.816 -140.838 1254.28
-60.9267 -140.37 1254
-62.0708 -139.919 1253.73
-63.2475 -139.486 1253.47
-64.4557 -139.074 1253.21
-65.6944 -138.684 1252.96
-66.9625 -138.318 1252.72
-68.2587 -137.977 1252.49
-69.5816 -137.664 1252.26
-70.93 -137.379 1252.05
-72.3025 -137.124 1251.85
-73.6974 -136.901 1251.66
-75.1133 -136.71 1251.49
-76.5484 -136.554 1251.33
-78.0012 -136.432 1251.18
-79.4699 -136.347 1251.04
-80.9528 -136.299 1250.93
-82.4481 -136.288 1250.82
-83.9539 -136.316 1250.74
-85.4684 -136.383 1250.67
-86.9898 -136.49 1250.61
-88.5162 -136.637 1250.58
-90.0457 -136.824 1250.56
-91.5766 -137.052 1250.56
-93.1068 -137.32 1250.57
-94.6347 -137.63 1250.61
-96.1585 -137.98 1250.66
-97.6762 -138.37 1250.73
-99.1864 -138.801 1250.82
-100.687 -139.271 1250.92
-102.177 -139.781 1251.05
-103.654 -140.33 1251.19
-105.117 -140.918 1251.35
-106.564 -141.543 1251.52
-107.995 -142.205 1251.72
-109.407 -142.903 1251.93
-110.8 -143.637 1252.15
-112.171 -144.405 1252.4
-113.521 -145.207 1252.65
-114.848 -146.041 1252.93
-116.151 -146.907 1253.22
-117.43 -147.803 1253.52
-118.683 -148.729 1253.84
-119.909 -149.684 1254.18
-121.109 -150.665 1254.52
-122.282 -151.673 1254.88
-123.427 -152.706 1255.26
-124.543 -153.763 1255.64
-125.632 -154.842 1256.04
-126.691 -155.943 1256.45
