-183.819187 7.529170 1270.610000
-183.370871 6.645668 1270.503341
-183.332902 5.762693 1270.396652
-183.112967 4.884878 1270.289993
-182.323628 4.030385 1270.183334
-181.994153 3.169074 1270.076675
-181.610246 2.315712 1269.969985
-181.553665 1.448252 1269.863326
-181.373525 0.589494 1269.756667
-180.912963 -0.245097 1269.650009
-180.724133 -1.096565 1269.543319
-179.958272 -1.890473 1269.436660
-179.872346 -2.743803 1269.330001
-180.169413 -3.640835 1269.223342
-180.083072 -4.497766 1269.116653
-179.801233 -5.329290 1269.009994
-179.402747 -6.141407 1268.903335
-179.199733 -6.977769 1268.796676
-179.038779 -7.819429 1268.689987
-179.057061 -8.690600 1268.583328
-179.122231 -9.572906 1268.476669
-178.975432 -10.419785 1268.370010
-179.419330 -11.381661 1268.263320
-179.365373 -12.253278 1268.156661
-179.314904 -13.127792 1268.050002
-179.552181 -14.068467 1267.943344
-179.553273 -14.962410 1267.836654
-179.405540 -15.824252 1267.729995
-179.342732 -16.708303 1267.623336
-179.469542 -17.644150 1267.516677
-179.510397 -18.563417 1267.409988
-180.089421 -19.636956 1267.303329
-180.061216 -20.551714 1267.196670
-180.926265 -21.735162 1267.090011
-180.801255 -22.637190 1266.983322
-180.786839 -23.576727 1266.876663
-181.032912 -24.605835 1266.770004
-181.030630 -25.562004 1266.663345
-181.855028 -26.808381 1266.556655
-181.619657 -27.701421 1266.449996
-181.427660 -28.611663 1266.343337
-181.571869 -29.650047 1266.236678
-182.139943 -30.860460 1266.129989
-182.072674 -31.838691 1266.023330
-181.752817 -32.720440 1265.916671
-182.212222 -33.925607 1265.810012
-182.560033 -35.100197 1265.703323
-182.730894 -36.212675 1265.596664
-182.423288 -37.123594 1265.490005
-183.054947 -38.464278 1265.383346
-182.980330 -39.497394 1265.276656
-182.995112 -40.580287 1265.169998
-182.981722 -41.658752 1265.063339
-183.134696 -42.829147 1264.956680
-183.275116 -44.006058 1264.849990
-183.339973 -45.156607 1264.743331
-183.630023 -46.438532 1264.636672
-183.657440 -47.594897 1264.530013
-183.467281 -48.642150 1264.423324
-183.007081 -49.543466 1264.316665
-182.781446 -50.581082 1264.210006
-182.536945 -51.614135 1264.103347
-182.744275 -52.925062 1263.996658
-183.044515 -54.310382 1263.889999
-183.378666 -55.737058 1263.783340
-183.181051 -56.846470 1263.676681
-183.381426 -58.223276 1263.569991
-183.074528 -59.283538 1263.463333
-183.183670 -60.631354 1263.356674
-183.134180 -61.888023 1263.250015
-183.622187 -63.535348 1263.143325
-183.601576 -64.848705 1263.036666
-183.388143 -66.038060 1262.930007
-183.656952 -67.595685 1262.823348
-184.282644 -69.447210 1262.716659
-184.288771 -70.858833 1262.610000
-184.369400 -72.347803 1262.503341
-184.798096 -74.135498 1262.396652
-185.511305 -76.186115 1262.289993
-185.899676 -78.010682 1262.183334
-186.056026 -79.673830 1262.076675
-186.163138 -81.322211 1261.969985
-186.862723 -83.512260 1261.863326
-186.944554 -85.201554 1261.756667
-186.643250 -86.573599 1261.650009
-186.666602 -88.259568 1261.543319
-186.600941 -89.890125 1261.436660
-186.387592 -91.406132 1261.330001
-185.893912 -92.672990 1261.223342
-185.858870 -94.403395 1261.116653
-185.522109 -95.861401 1261.009994
-185.029291 -97.180345 1260.903335
-184.659015 -98.641141 1260.796676
-184.222657 -100.052422 1260.689987
-183.789055 -101.485171 1260.583328
-183.248713 -102.820864 1260.476669
-182.573643 -104.023089 1260.370010
-182.197405 -105.574719 1260.263320
-181.540622 -106.827900 1260.156661
-181.000522 -108.231537 1260.050002
-180.393261 -109.574592 1259.943344
-179.862209 -111.027615 1259.836654
-179.171552 -112.305267 1259.729995
-178.186447 -113.228402 1259.623336
-177.402017 -114.411482 1259.516677
-176.788150 -115.829730 1259.409988
-176.033964 -117.083559 1259.303329
-175.402067 -118.518717 1259.196670
-174.670594 -119.839914 1259.090011
-173.721759 -120.875585 1258.983322
-172.597292 -121.669318 1258.876663
-171.662848 -122.739695 1258.770004
-170.974980 -124.186650 1258.663345
-170.149962 -125.452163 1258.556655
-169.273519 -126.657714 1258.449996
-168.407000 -127.896180 1258.343337
-167.545498 -129.161740 1258.236678
-166.355400 -129.911682 1258.129989
-165.480656 -131.187057 1258.023330
-164.796593 -132.808246 1257.916671
-163.708075 -133.765538 1257.810012
-162.617411 -134.729130 1257.703323
-161.568515 -135.778931 1257.596664
-160.606110 -137.003013 1257.490005
-159.759831 -138.468417 1257.383346
-158.540838 -139.251731 1257.276656
-157.720153 -140.821840 1257.169998
-156.323744 -141.277376 1257.063339
-155.471449 -142.839933 1256.956680
-154.329202 -143.836382 1256.849990
-153.065080 -144.588302 1256.743331
-151.695840 -145.115760 1256.636672
-150.357781 -145.709482 1256.530013
-149.137818 -146.574724 1256.423324
-147.964038 -147.562482 1256.316665
-146.683958 -148.314160 1256.210006
-145.443103 -149.172454 1256.103347
-144.126697 -149.854712 1255.996658
-142.799019 -150.515022 1255.889999
-141.419512 -151.043722 1255.783340
-140.056840 -151.619289 1255.676681
-138.708615 -152.239567 1255.569991
-137.321602 -152.754416 1255.463333
-135.900257 -153.168592 1255.356674
-134.431213 -153.432680 1255.250015
-132.960946 -153.681116 1255.143325
-131.435448 -153.736653 1255.036666
-129.929822 -153.835135 1254.930007
-128.447132 -153.992502 1254.823348
-126.945323 -154.064120 1254.716659
-124.950166 -154.470037 1254.370000
-124.071943 -154.642346 1254.610000
-122.575825 -154.684006 1254.610000
-121.152893 -155.006471 1254.610000
-119.641031 -154.942296 1254.610000
-118.227183 -155.287765 1254.610000
-116.723346 -155.212492 1254.610000
-115.314423 -155.569922 1254.610000
-113.889869 -155.853284 1254.610000
-112.474975 -156.189367 1254.610000
-111.045124 -156.447926 1254.610000
-109.526928 -156.179227 1254.610000
-108.009787 -155.859664 1254.610000
-106.550288 -155.860504 1254.610000
-105.123532 -156.067373 1254.610000
-103.634208 -155.799830 1254.610000
-102.170520 -155.675241 1254.610000
-100.705935 -155.496223 1254.610000
-99.229324 -155.145398 1254.610000
-97.795853 -155.150969 1254.610000
-96.350598 -154.995431 1254.610000
-94.915891 -154.911444 1254.610000
-93.461733 -154.500173 1254.610000
-92.032068 -154.343070 1254.610000
-90.605499 -154.163640 1254.610000
-89.187124 -154.070320 1254.610000
-87.776651 -154.125737 1254.610000
-86.365749 -154.168844 1254.610000
-84.942620 -153.517610 1254.610000
-83.527530 -152.435731 1254.610000
-82.131538 -152.441822 1254.610000
-80.740880 -151.824443 1254.610000
-79.360233 -151.238745 1254.610000
-77.976012 -151.163945 1254.610000
-76.598880 -150.905415 1254.610000
-75.211334 -150.969556 1254.610000
-73.920589 -149.145056 1254.610000
-72.553679 -149.067438 1254.610000
-71.240392 -148.221476 1254.610000
-69.881643 -148.120503 1254.610000
-68.523827 -148.007678 1254.610000
-67.366357 -145.813095 1254.610000
-66.028772 -145.678407 1254.610000
-64.692414 -145.532052 1254.610000
-63.292632 -145.901401 1254.610000
-62.051000 -144.997657 1254.610000
-60.790583 -144.319613 1254.610000
-59.735755 -142.324513 1254.610000
-57.979409 -140.828830 1254.370000
-57.263735 -141.074961 1254.694839
-55.976626 -140.802705 1254.779708
-54.742039 -140.251342 1254.864547
-53.473806 -139.902079 1254.949386
-52.223957 -139.471287 1255.034255
-50.979835 -139.028069 1255.119094
-49.678475 -138.857134 1255.203933
-48.403308 -138.563844 1255.288802
-47.070457 -138.510742 1255.373641
-45.879986 -137.867863 1255.458480
-44.692445 -137.237059 1255.543319
-43.489338 -136.685483 1255.628188
-42.280633 -136.168551 1255.713027
-41.024521 -135.828032 1255.797866
-39.952201 -134.865884 1255.882736
-38.812066 -134.162438 1255.967574
-37.595258 -133.721862 1256.052413
-36.419051 -133.159396 1256.137283
-35.353854 -132.274589 1256.222122
-34.265979 -131.482507 1256.306960
-33.148250 -130.795367 1256.391830
-32.026666 -130.132834 1256.476669
-30.939835 -129.389258 1256.561508
-29.813769 -128.763277 1256.646377
-28.739484 -128.014454 1256.731216
-27.725916 -127.129470 1256.816055
-26.645446 -126.426106 1256.900924
-25.553138 -125.761188 1256.985763
-24.615222 -124.749300 1257.070602
-23.552930 -124.040537 1257.155441
-22.506217 -123.306655 1257.240310
-21.569608 -122.346308 1257.325149
-20.567990 -121.541492 1257.409988
-19.557307 -120.767016 1257.494857
-18.566217 -119.963140 1257.579696
-17.572957 -119.174179 1257.664535
-16.521844 -118.505879 1257.749404
-15.755595 -117.305821 1257.834243
-14.497494 -117.037242 1257.919082
-13.819651 -115.708736 1258.003951
-13.016175 -114.631821 1258.088790
-11.967597 -113.998340 1258.173629
-11.006562 -113.217078 1258.258499
-10.218820 -112.153691 1258.343337
-9.271662 -111.367341 1258.428176
-8.368069 -110.517055 1258.513015
-7.640761 -109.397927 1258.597885
-6.800595 -108.470309 1258.682723
-5.802201 -107.791879 1258.767562
-5.134686 -106.623357 1258.852432
-4.329596 -105.673358 1258.937271
-3.942977 -104.135668 1259.022109
-3.080693 -103.296027 1259.106979
-2.387125 -102.229598 1259.191818
-1.768516 -101.075221 1259.276656
-0.914942 -100.248893 1259.361526
-0.170510 -99.284521 1259.446365
0.351731 -98.044599 1259.531204
0.669807 -96.566387 1259.616073
1.261124 -95.452191 1259.700912
2.056448 -94.599023 1259.785751
2.488943 -93.317592 1259.870620
2.972854 -92.115270 1259.955459
3.482064 -90.958013 1260.040298
3.945673 -89.763418 1260.125137
4.601814 -88.797976 1260.210006
4.914921 -87.465370 1260.294845
5.572833 -86.522253 1260.379684
5.774099 -85.104043 1260.464553
5.967446 -83.699999 1260.549392
6.597848 -82.762509 1260.634231
7.019599 -81.621967 1260.719100
7.180161 -80.237192 1260.803939
7.207164 -78.744211 1260.888778
7.566365 -77.590961 1260.973647
8.171736 -76.679996 1261.058486
8.555785 -75.570451 1261.143325
8.589449 -74.156373 1261.228195
8.595390 -72.739235 1261.313033
8.967782 -71.662260 1261.397872
9.482656 -70.716744 1261.482742
9.307358 -69.197174 1261.567581
9.587170 -68.077898 1261.652419
9.534779 -66.700749 1261.737258
9.941655 -65.709155 1261.822128
9.530755 -64.085262 1261.906967
9.499639 -62.781905 1261.991805
9.325297 -61.388498 1262.076675
8.965355 -59.878985 1262.161514
8.852706 -58.574753 1262.246353
8.550435 -57.153653 1262.331222
8.459494 -55.903353 1262.416061
8.770383 -54.945989 1262.500900
8.492491 -53.597509 1262.585769
8.714118 -52.600258 1262.670608
8.444645 -51.291691 1262.755447
7.829217 -49.782152 1262.840316
7.596344 -48.539033 1262.925155
7.503885 -47.399488 1263.009994
7.008133 -46.031348 1263.094863
6.743068 -44.821974 1263.179702
6.760853 -43.792876 1263.264541
6.374430 -42.545098 1263.349380
6.017460 -41.332617 1263.434249
6.069276 -40.359965 1263.519088
5.982294 -39.321786 1263.603927
5.248472 -37.957984 1263.688796
4.507204 -36.615474 1263.773635
4.364722 -35.596274 1263.858474
4.365343 -34.658178 1263.943344
4.106870 -33.604441 1264.028182
3.902600 -32.589207 1264.113021
3.475563 -31.484233 1264.197891
3.529244 -30.609467 1264.282729
2.622179 -29.322795 1264.367568
2.550267 -28.416124 1264.452438
2.830527 -27.663270 1264.537277
2.232288 -26.556028 1264.622115
1.890069 -25.567821 1264.706985
1.797636 -24.688221 1264.791824
1.617855 -23.783445 1264.876663
0.684464 -22.613390 1264.961501
0.794546 -21.836496 1265.046371
0.628061 -20.967245 1265.131210
0.511873 -20.122929 1265.216049
0.572435 -19.342980 1265.300918
-0.265273 -18.283164 1265.385757
-0.785213 -17.340897 1265.470596
-1.302398 -16.413512 1265.555465
-1.387295 -15.623869 1265.640304
-1.252228 -14.900648 1265.725143
-1.619693 -14.043914 1265.810012
-2.057710 -13.179330 1265.894851
-2.575723 -12.306322 1265.979690
-2.586199 -11.567976 1266.064559
-2.727629 -10.802667 1266.149398
-2.808970 -10.056220 1266.234237
-2.836286 -9.325556 1266.319076
-3.210717 -8.527453 1266.403945
-3.487810 -7.757622 1266.488784
-3.765113 -6.995188 1266.573623
-4.072854 -6.234682 1266.658492
-4.042721 -5.538416 1266.743331
-4.591193 -4.752014 1266.828170
-4.666770 -4.048017 1266.913040
-4.926877 -3.321238 1266.997878
-5.024200 -2.622204 1267.082717
-5.201096 -1.916701 1267.167587
-5.282192 -1.226707 1267.252426
-5.506965 -0.524397 1267.337264
-5.543256 0.154557 1267.422134
-5.533185 0.827682 1267.506973
-5.488125 1.497202 1267.591812
-5.619240 2.178909 1267.676681
-5.746278 2.857247 1267.761520
-5.737316 3.525518 1267.846359
-5.897209 4.200707 1267.931198
-6.028436 4.871591 1268.016067
-6.219481 5.541343 1268.100906
-6.465225 6.208409 1268.185745
-6.658881 6.870530 1268.270614
-6.484197 7.529170 1268.355453
-6.294252 8.190992 1268.440292
-5.971136 8.858555 1268.525161
-6.097809 9.520183 1268.610000
-6.162216 10.182077 1268.694839
-6.348134 10.837945 1268.779708
-6.507364 11.492465 1268.864547
-6.416675 12.160089 1268.949386
-5.950210 12.856287 1269.034255
-5.692374 13.545063 1269.119094
-5.727683 14.213641 1269.203933
-5.472957 14.910552 1269.288802
-5.441465 15.589621 1269.373641
-5.314147 16.281406 1269.458480
-5.116599 16.985415 1269.543319
-5.090165 17.671859 1269.628188
-4.920327 18.380498 1269.713027
-4.894852 19.072270 1269.797866
-4.805648 19.776388 1269.882736
-4.762990 20.476224 1269.967574
-4.597548 21.200504 1270.052413
-4.098573 21.991725 1270.137283
-3.726020 22.769659 1270.222122
-3.503064 23.526314 1270.306960
-3.388026 24.266620 1270.391830
-3.187715 25.030594 1270.476669
-3.235650 25.743721 1270.561508
-3.097201 26.503635 1270.646377
-2.503105 27.382768 1270.731216
-2.522156 28.117556 1270.816055
-2.301262 28.919628 1270.900924
-2.314158 29.664488 1270.985763
-2.178880 30.455226 1271.070602
-2.093337 31.237565 1271.155441
-1.884365 32.063193 1271.240310
-1.596320 32.921826 1271.325149
-1.249089 33.809471 1271.409988
-1.262795 34.587473 1271.494857
-1.513821 35.288076 1271.579696
-1.304220 36.151624 1271.664535
-1.247466 36.968564 1271.749404
-1.015034 37.857388 1271.834243
-0.826727 38.739162 1271.919082
-0.730790 39.593777 1272.003951
-0.717314 40.422651 1272.088790
-0.545648 41.323152 1272.173629
-0.518888 42.171684 1272.258499
-0.599758 42.980197 1272.343337
-0.627469 43.817119 1272.428176
-0.540453 44.712369 1272.513015
-0.452031 45.616949 1272.597885
-0.534172 46.449117 1272.682723
-0.409893 47.387479 1272.767562
-0.503626 48.227345 1272.852432
-0.532043 49.106189 1272.937271
-0.409617 50.070909 1273.022109
-0.600010 50.880252 1273.106979
-0.401275 51.905082 1273.191818
-0.426223 52.819165 1273.276656
-0.377482 53.783389 1273.361526
-0.561357 54.623736 1273.446365
-0.759853 55.460755 1273.531204
-0.907742 56.333350 1273.616073
-0.655966 57.457464 1273.700912
-0.564607 58.497845 1273.785751
-0.776687 59.357926 1273.870620
-0.849276 60.314488 1273.955459
-0.762107 61.386421 1274.040298
-0.770267 62.408040 1274.125137
-1.000947 63.288680 1274.210006
-1.123906 64.251324 1274.294845
-0.900113 65.470982 1274.379684
-1.178177 66.345229 1274.464553
-1.271414 67.362514 1274.549392
-1.532909 68.264593 1274.634231
-1.464286 69.427329 1274.719100
-1.597167 70.449516 1274.803939
-1.575024 71.606714 1274.888778
-1.711595 72.651956 1274.973647
-1.960044 73.617449 1275.058486
-2.228448 74.575823 1275.143325
-2.444169 75.588612 1275.228195
-2.436754 76.806788 1275.313033
-2.476498 78.001996 1275.397872
-2.958563 78.816836 1275.482742
-2.930010 80.103999 1275.567581
-3.309261 81.032132 1275.652419
-3.417898 82.225625 1275.737258
-3.575942 83.389427 1275.822128
-3.846868 84.459300 1275.906967
-4.309590 85.351117 1275.991805
-4.327164 86.703475 1276.076675
-4.666123 87.746955 1276.161514
-5.071306 88.733711 1276.246353
-5.413140 89.799579 1276.331222
-5.729970 90.906850 1276.416061
-6.249466 91.804748 1276.500900
-6.153038 93.407242 1276.585769
-6.685723 94.319652 1276.670608
-7.360339 95.074995 1276.755447
-7.654384 96.287585 1276.840316
-7.991742 97.467933 1276.925155
-8.495445 98.462171 1277.009994
-8.975750 99.498600 1277.094863
-9.251874 100.810886 1277.179702
-9.825398 101.760366 1277.264541
-10.348859 102.788002 1277.349380
-10.749267 103.996772 1277.434249
-11.303192 105.016025 1277.519088
-11.708059 106.259245 1277.603927
-12.537787 106.919346 1277.688796
-13.203096 107.820675 1277.773635
-13.571331 109.173857 1277.858474
-14.162726 110.218842 1277.943344
-14.804938 111.203042 1278.028182
-15.349508 112.355959 1278.113021
-15.913835 113.499646 1278.197891
-16.527682 114.584932 1278.282729
-17.282603 115.455922 1278.367568
-17.827415 116.695907 1278.452438
-18.408358 117.900955 1278.537277
-19.253411 118.665882 1278.622115
-19.766770 120.038189 1278.706985
-20.528967 120.986992 1278.791824
-21.446007 121.662054 1278.876663
-22.050401 122.943959 1278.961501
-22.882491 123.811972 1279.046371
-23.816487 124.491067 1279.131210
-24.543850 125.601426 1279.216049
-25.243901 126.796580 1279.300918
-26.141184 127.600870 1279.385757
-27.096445 128.292659 1279.470596
-27.979410 129.156841 1279.555465
-28.752608 130.292304 1279.640304
-29.712992 131.019524 1279.725143
-30.547113 132.064988 1279.810012
-31.430864 133.017740 1279.894851
-32.442670 133.671708 1279.979690
-33.456947 134.330815 1280.064559
-34.357177 135.307502 1280.149398
-35.250565 136.333583 1280.234237
-36.290699 136.979705 1280.319076
-37.372173 137.519804 1280.403945
-38.441952 138.103577 1280.488784
-39.368022 139.141738 1280.573623
-40.390165 139.915889 1280.658492
-41.563311 140.221861 1280.743331
-42.528597 141.226458 1280.828170
-43.662056 141.688196 1280.913040
-44.572168 142.963881 1280.997878
-45.740454 143.342544 1281.082717
-46.912416 143.711408 1281.167587
-48.048430 144.229050 1281.252426
-49.106051 145.090222 1281.337264
-50.272316 145.526618 1281.422134
-51.397339 146.162182 1281.506973
-52.559266 146.655770 1281.591812
-53.645193 147.544027 1281.676681
-54.857497 147.841947 1281.761520
-56.045360 148.277591 1281.846359
-57.226464 148.772863 1281.931198
-58.453411 149.024078 1282.016067
-59.675707 149.309706 1282.100906
-60.892824 149.640723 1282.185745
-62.116823 149.941266 1282.270614
-63.310561 150.488680 1282.355453
-64.543437 150.772754 1282.440292
-65.790946 150.948705 1282.525161
-67.048030 151.878754 1282.840000
-68.305186 151.121324 1282.610000
-69.560236 151.219809 1282.610000
-70.781390 151.746475 1282.610000
-72.040339 151.840031 1282.610000
-73.304498 151.850000 1282.610000
-74.564486 151.917121 1282.610000
-75.759839 153.465073 1282.610000
-77.001861 154.423892 1282.610000
-78.211188 157.241301 1282.610000
-79.555729 155.097170 1282.610000
-80.846229 154.810931 1282.610000
-82.131538 153.401572 1282.610000
-83.406999 153.682591 1282.610000
-84.689495 154.074474 1282.610000
-85.974646 154.291575 1282.610000
-87.293544 155.349695 1282.610000
-88.583309 155.299020 1282.610000
-89.872582 155.237092 1282.610000
-91.120207 154.492619 1282.610000
-92.402347 154.408583 1282.610000
-93.655439 153.954220 1282.610000
-95.085278 155.591102 1282.610000
-96.376853 155.472423 1282.610000
-97.702459 155.676592 1282.610000
-99.026121 155.811022 1282.610000
-100.319464 155.657945 1282.610000
-101.611423 155.493587 1282.610000
-103.002234 156.031889 1282.610000
-104.297353 155.844106 1282.610000
-105.590785 155.645027 1282.610000
-106.776956 154.804381 1282.610000
-108.061220 154.583704 1282.610000
-109.587996 155.670961 1282.610000
-110.879715 155.425720 1282.610000
-112.392382 156.265973 1282.610000
-113.689187 155.996237 1282.610000
-114.983589 155.715195 1282.610000
-115.918031 153.874550 1282.610000
-117.193833 153.574139 1282.610000
-118.458895 153.230242 1282.610000
-119.802720 153.192824 1282.610000
-121.192704 153.307428 1282.610000
-122.575216 153.364364 1282.610000
-123.846312 153.005878 1282.610000
-125.114232 152.636313 1282.610000
-126.585579 152.931786 1282.610000
-128.295354 153.942090 1282.610000
-129.571274 153.533665 1282.610000
-130.985743 153.538998 1282.610000
-132.702152 154.396899 1282.610000
-133.981873 153.950000 1282.610000
-135.401371 153.886834 1282.610000
-136.608044 153.233204 1282.610000
-138.032889 153.157169 1282.610000
-139.550740 153.296306 1282.610000
-141.014044 153.268487 1282.610000
-142.308402 152.808972 1282.610000
-143.696290 152.566637 1282.610000
-145.166129 152.498805 1282.610000
-146.662921 152.469030 1282.610000
-148.158392 152.411878 1282.610000
-149.429589 151.850307 1282.610000
-150.899534 151.704273 1282.610000
-152.272812 151.340094 1282.610000
-153.713087 151.099547 1282.610000
-156.127794 152.755000 1282.610000
-158.237302 153.782959 1282.840000
-158.898576 151.906971 1282.513229
-160.648994 152.140335 1282.416458
-162.393680 152.325907 1282.319686
-163.716464 151.730038 1282.222915
-165.075369 151.192100 1282.126144
-166.088050 150.059045 1282.029342
-167.325190 149.315218 1281.932571
-168.283101 148.115744 1281.835800
-169.620321 147.540491 1281.739028
-170.305716 145.934907 1281.642257
-171.536167 145.200227 1281.545486
-172.536637 144.116375 1281.448715
-173.483614 142.964192 1281.351943
-174.566783 142.023286 1281.255172
-175.224367 140.479508 1281.158401
-176.125021 139.303173 1281.061599
-176.958191 138.046861 1280.964828
-177.784621 136.796893 1280.868057
-178.693022 135.670587 1280.771285
-179.639015 134.603388 1280.674514
-180.248850 133.113603 1280.577743
-181.266985 132.159508 1280.480972
-181.937465 130.779226 1280.384200
-182.936020 129.814785 1280.287429
-183.813377 128.708867 1280.190658
-184.516673 127.406761 1280.093856
-185.245096 126.147749 1279.997085
-185.706770 124.599674 1279.900314
-186.501269 123.443500 1279.803542
-187.402984 122.412794 1279.706771
-187.758752 120.800489 1279.610000
-188.387012 119.499077 1279.513229
-189.292177 118.497260 1279.416458
-189.918411 117.213889 1279.319686
-190.433983 115.831615 1279.222915
-190.873357 114.389458 1279.126144
-191.693391 113.331822 1279.029342
-192.212302 111.991915 1278.932571
-192.873101 110.797348 1278.835800
-193.712268 109.774072 1278.739028
-194.383703 108.601474 1278.642257
-193.660432 106.201600 1278.545486
-194.205766 104.953810 1278.448715
-194.383661 103.401541 1278.351943
-195.169019 102.378878 1278.255172
-195.905932 101.317543 1278.158401
-195.944839 99.693364 1278.061599
-196.621086 98.598268 1277.964828
-196.759991 97.086733 1277.868057
-197.409935 95.985395 1277.771285
-197.967649 94.817941 1277.674514
-198.726137 93.804635 1277.577743
-198.742615 92.252077 1277.480972
-199.415717 91.187162 1277.384200
-199.834925 89.945969 1277.287429
-200.068163 88.584767 1277.190658
-200.341216 87.262605 1277.093856
-200.805866 86.077994 1276.997085
-201.329903 84.937494 1276.900314
-201.704334 83.705442 1276.803542
-202.125824 82.509922 1276.706771
-202.439730 81.254125 1276.610000
-202.658283 79.948945 1276.513229
-202.876060 78.653129 1276.416458
-203.459637 77.577981 1276.319686
-203.931669 76.440369 1276.222915
-204.076080 75.124133 1276.126144
-204.197800 73.805743 1276.029342
-204.419186 72.550666 1275.932571
-204.686081 71.327027 1275.835800
-205.056760 70.162699 1275.739028
-205.386380 68.981767 1275.642257
-204.769309 67.343608 1275.545486
-205.266104 66.261345 1275.448715
-205.742821 65.170058 1275.351943
-205.746392 63.863704 1275.255172
-205.579516 62.491751 1275.158401
-205.759205 61.284009 1275.061599
-205.140347 59.743312 1274.964828
-204.992700 58.419929 1274.868057
-204.250454 56.868415 1274.771285
-203.571514 55.365649 1274.674514
-202.905961 53.890127 1274.577743
-202.522663 52.541567 1274.480972
-201.064517 50.817234 1274.384200
-200.216109 49.345110 1274.287429
-199.445044 47.923450 1274.190658
-199.131763 46.676898 1274.093856
-198.168737 45.231941 1273.997085
-197.495243 43.903206 1273.900314
-196.649850 42.540932 1273.803542
-195.142614 41.004576 1273.706771
-194.001908 39.607482 1273.610000
-193.878435 38.519327 1273.513229
-193.875015 37.470744 1273.416458
-193.640451 36.367336 1273.319686
-192.147545 34.959241 1273.222915
-191.800158 33.858276 1273.126144
-191.541427 32.788433 1273.029342
-191.537867 31.783969 1272.932571
-191.646509 30.807296 1272.835800
-190.447891 29.566381 1272.739028
-190.095710 28.515279 1272.642257
-190.097892 27.539551 1272.545486
-190.038339 26.556050 1272.448715
-189.637941 25.519572 1272.351943
-188.722703 24.411552 1272.255172
-188.857010 23.479399 1272.158401
-188.948904 22.541372 1272.061599
-188.835947 21.577072 1271.964828
-187.977630 20.525436 1271.868057
-187.905651 19.580608 1271.771285
-187.572407 18.611452 1271.674514
-187.304114 17.656137 1271.577743
-187.229048 16.724011 1271.480972
-186.946567 15.778292 1271.384200
-186.227457 14.808266 1271.287429
-185.774721 13.868258 1271.190658
-185.440491 12.943363 1271.093856
-185.584377 12.046018 1270.997085
-184.921850 11.118687 1270.900314
-184.354844 10.205981 1270.803542
-183.793151 9.303680 1270.706771
-183.815315 8.416551 1270.610000
s
