-103.561095 175.958692 1387.744218
-105.415396 175.418714 1389.171060
-107.068354 174.837689 1392.688669
-109.284175 174.216168 1391.857135
-111.211825 173.554669 1395.848303
-113.352114 172.853772 1395.431230
-115.481871 172.114026 1396.472500
-117.594374 171.335950 1396.734779
-119.661214 170.520154 1396.727046
-121.704338 169.667157 1396.247552
-123.520725 168.777509 1395.629842
-125.588120 167.851758 1396.058510
-127.177603 166.890454 1393.929234
-128.811991 165.894177 1393.130347
-130.376836 164.863477 1392.254103
-131.756426 163.798871 1390.982756
-132.901471 162.700910 1389.442555
-134.342791 161.570203 1389.108343
-135.675566 160.407239 1388.207983
-136.857522 159.212628 1387.423057
-138.330583 157.986859 1387.224888
-139.438557 156.730542 1386.766532
-140.579534 155.444165 1385.731250
-142.319562 154.128339 1386.175033
-143.970878 152.783612 1386.110064
-144.886715 151.410504 1385.435480
-146.374922 150.009564 1385.437412
-147.780560 148.581372 1385.659758
-149.730805 147.126477 1386.195335
-151.408625 145.645429 1386.336835
-153.006211 144.138776 1386.439566
-154.334383 142.607037 1386.777801
-156.207420 141.050824 1386.958436
-158.511007 139.470654 1387.563964
-159.190051 137.867078 1387.920962
-161.351603 136.240643 1388.105152
-163.613672 134.591931 1388.539003
-164.989073 132.921491 1388.564012
-166.760412 131.229840 1388.959771
-167.838537 129.517560 1388.916213
-169.033964 127.785169 1388.724738
-170.597011 126.033276 1388.601308
-171.691410 124.262372 1388.365624
-172.871739 122.473035 1388.172835
-174.025633 120.665845 1388.041620
-175.112587 118.841321 1387.835913
-175.973236 117.000012 1387.675026
-176.852533 115.142468 1387.426011
-177.951165 113.269269 1387.368070
-178.552145 111.380963 1386.994519
-179.912244 109.478070 1387.209158
-180.715864 107.561170 1387.083051
-181.379341 105.630780 1386.940158
-182.696383 103.687512 1387.131459
-183.366735 101.731885 1387.015404
-184.562663 99.764417 1387.281645
-185.576850 97.785718 1387.410560
-186.506103 95.796308 1387.249752
-187.115479 93.796765 1387.584947
-188.024117 91.787610 1387.760139
-188.770865 89.769391 1387.727653
-189.426231 87.742688 1387.977717
-189.860157 85.708051 1387.986645
-190.432488 83.666028 1388.172187
-190.794091 81.617139 1388.173009
-191.035579 79.561994 1388.148814
-191.189082 77.501080 1388.105265
-191.271929 75.435010 1388.059407
-191.279635 73.364270 1388.007557
-191.214638 71.289502 1387.950883
-191.086801 69.211163 1387.892133
-190.900228 67.129865 1387.831621
-190.659702 65.046155 1387.769864
-190.398663 62.960553 1387.726552
-190.177372 60.873624 1387.661719
-189.701224 58.785947 1387.561229
-188.996326 56.698041 1387.332048
-188.523316 54.610471 1387.153971
-187.887464 52.523801 1386.946255
-187.262928 50.438565 1386.843619
-186.273017 48.355313 1386.580393
-185.067648 46.274610 1386.117201
-184.460914 44.197003 1385.980840
-183.230686 42.123044 1385.570037
-182.201084 40.053296 1385.268371
-181.407511 37.988278 1385.163202
-180.526976 35.928586 1384.587423
-179.664228 33.874738 1384.468158
-177.902489 31.827283 1383.938133
-176.997818 29.786801 1383.820935
-176.104037 27.753842 1383.555859
-175.327110 25.728925 1383.496225
-174.626280 23.712644 1383.659017
-174.026487 21.705518 1383.652704
-173.432667 19.708112 1383.803880
-172.969920 17.720975 1384.212137
-172.792606 15.744657 1384.585292
-172.325436 13.779721 1384.959438
-172.210225 11.826718 1385.204561
-171.821115 9.886197 1385.777680
-171.425866 7.958692 1386.394453
-171.372090 5.454633 1385.844649
-171.506685 2.943860 1385.339997
-171.301773 0.426923 1384.837502
-171.236730 -2.095614 1384.324165
-170.881159 -4.623187 1383.882530
-170.927886 -7.155246 1383.434700
-170.579178 -9.691211 1382.932256
-170.752840 -12.230533 1382.648602
-170.682920 -14.772662 1382.408378
-170.676222 -17.317020 1382.194223
-170.732145 -19.863055 1381.997084
-170.893785 -22.410205 1381.825757
-170.866732 -24.957904 1381.680782
-171.085414 -27.505603 1381.554757
-171.345462 -30.052722 1381.440358
-171.339843 -32.598712 1381.528291
-171.554590 -35.143024 1381.490011
-171.546529 -37.685077 1381.498268
-171.833241 -40.224322 1381.550329
-171.830295 -42.760181 1381.645657
-172.186909 -45.292117 1381.798649
-172.484275 -47.819568 1382.285201
-172.984412 -50.341952 1382.539272
-173.186713 -52.858722 1382.878217
-173.761396 -55.369327 1383.260410
-173.970412 -57.873187 1383.785037
-174.276679 -60.369739 1384.211694
-174.619387 -62.858447 1384.784954
-174.953613 -65.338733 1385.284723
-175.265226 -67.810031 1385.875160
-175.622108 -70.271792 1386.363008
-175.517979 -72.723453 1386.768562
-175.588233 -75.164455 1387.213066
-175.641997 -77.594226 1387.772155
-175.510747 -80.012218 1388.213731
-175.364775 -82.417865 1388.575493
-174.971826 -84.810603 1388.907704
-174.493474 -87.189876 1389.153851
-173.953898 -89.555125 1389.283733
-173.167015 -91.905788 1389.404803
-172.509562 -94.241298 1389.521046
-171.620895 -96.561099 1389.566966
-170.516104 -98.864627 1389.448555
-169.622798 -101.151332 1389.428512
-168.341164 -103.420642 1389.184411
-167.172957 -105.671992 1389.120715
-165.912561 -107.904841 1388.971617
-164.687678 -110.118609 1388.853537
-163.428533 -112.312739 1388.641752
-162.119813 -114.486682 1388.467811
-160.949588 -116.639865 1388.298994
-159.457229 -118.771731 1388.206143
-158.255894 -120.881717 1388.221964
-156.976353 -122.969264 1388.181584
-155.749795 -125.033816 1388.241301
-154.561853 -127.074809 1388.178082
-153.084149 -129.091678 1388.125925
-151.748240 -131.083861 1388.079474
-150.255363 -133.050807 1387.841658
-148.904551 -134.991946 1387.847989
-147.226334 -136.906726 1387.332419
-145.689629 -138.794578 1387.083957
-144.491174 -140.654944 1387.040046
-142.609666 -142.487266 1386.841574
-141.401731 -144.290977 1386.416608
-139.507057 -146.065524 1385.634138
-137.591783 -147.810340 1384.464644
-136.096746 -149.524867 1383.972150
-134.107362 -151.208545 1382.865667
-133.036007 -152.860812 1383.248310
-131.346227 -154.481109 1382.250168
-129.804224 -156.068870 1382.080703
-128.280092 -157.623538 1381.365437
-126.710366 -159.144553 1381.015081
-125.462815 -160.631354 1381.030206
-124.102769 -162.083381 1380.470808
-122.659881 -163.500070 1380.935734
-121.210076 -164.880860 1380.389067
-119.743291 -166.225194 1380.053365
-118.276926 -167.532508 1379.662299
-116.836160 -168.802245 1379.699975
-115.336010 -170.033839 1379.318418
-113.796758 -171.226735 1380.444231
-112.184437 -172.380366 1381.224055
-110.475170 -173.494178 1381.350027
-108.753255 -174.567605 1381.754563
-106.569085 -175.600087 1383.170326
-104.188196 -176.591065 1385.641924
-101.310429 -177.539977 1389.374820
-98.976612 -178.446263 1389.795757
-96.826304 -179.309363 1383.861852
-93.606925 -180.128715 1389.706170
-90.403749 -180.903757 1391.561769
-90.248293 -181.633930 1385.710428
-87.874860 -182.318673 1383.892727
-84.507367 -182.957425 1384.915610
-88.051441 -183.549625 1377.760731
-74.750905 -184.094713 1387.407026
-73.308463 -184.592128 1386.314697
