-112.824 178.072 1181.06
-94.5853 241.973 1173.32
-95.5854 242.85 1173.47
-96.5784 243.628 1173.59
-97.6028 244.352 1173.69
-98.692 245.061 1173.79
-99.8784 245.791 1173.88
-100.518 246.175 1173.92
-101.843 246.969 1174.02
-103.313 247.836 1174.12
-104.904 248.741 1174.22
-106.578 249.642 1174.31
-107.12 249.933 1174.34
-108.786 250.74 1174.41
-110.439 251.455 1174.45
-112.039 252.048 1174.46
-113.578 252.518 1174.45
-115.057 252.88 1174.41
-116.483 253.144 1174.35
-117.864 253.325 1174.28
-119.208 253.437 1174.18
-120.52 253.493 1174.08
-121.805 253.504 1173.96
-123.063 253.483 1173.84
-124.297 253.434 1173.71
-125.51 253.356 1173.58
-126.707 253.245 1173.44
-127.894 253.096 1173.29
-129.72 252.777 1173.03
-86.124 230.631 1171
-87.7252 232.99 1171.5
-88.5968 234.296 1171.77
-89.4623 235.613 1172.05
-90.3653 236.966 1172.34
-91.3532 238.349 1172.63
-91.5069 238.575 1172.68
-92.4883 239.797 1172.92
-92.536 239.852 1172.93
-92.5827 239.898 1172.94
-96.5171 243.268 1173.5
-97.7443 244.174 1173.63
-99.0411 245.058 1173.75
-100.414 245.942 1173.87
-101.875 246.844 1173.98
-103.433 247.776 1174.09
-105.07 248.713 1174.2
-106.758 249.625 1174.29
-107.003 249.765 1174.3
-108.679 250.593 1174.38
-110.33 251.325 1174.42
-111.915 251.929 1174.44
-112.107 252.002 1174.45
-113.619 252.473 1174.43
-115.066 252.833 1174.4
-116.45 253.097 1174.34
-116.671 253.138 1174.33
-118.021 253.312 1174.26
-119.327 253.415 1174.16
-120.596 253.459 1174.06
-121.836 253.458 1173.94
-123.055 253.419 1173.82
-124.261 253.35 1173.69
-125.464 253.251 1173.55
-130.139 252.682 1172.97
-130.175 252.675 1172.96
-130.217 252.665 1172.95
-130.27 252.651 1172.94
-131.522 252.319 1172.74
-133.725 251.635 1172.35
-135.037 251.177 1172.1
-136.456 250.653 1171.83
-138.003 250.057 1171.52
-140.585 249.024 1171
-83.1373 222.163 1168.96
-83.1516 222.168 1168.96
-83.6216 224.26 1169.49
-83.9269 225.446 1169.78
-84.2903 226.68 1170.09
-84.7341 227.931 1170.39
-85.2877 229.174 1170.68
-85.9716 230.396 1170.95
-85.9856 230.424 1170.96
-85.9978 230.446 1170.96
-88.6459 234.604 1171.85
-89.4924 235.877 1172.12
-90.4203 237.179 1172.39
-91.4206 238.491 1172.66
-92.4684 239.776 1172.92
-92.4962 239.809 1172.92
-92.5218 239.838 1172.93
-92.5457 239.862 1172.93
-96.6941 243.404 1173.52
-97.8128 244.24 1173.64
-124.395 253.104 1173.61
-130.173 252.661 1172.96
-130.193 252.659 1172.95
-130.214 252.655 1172.95
-130.236 252.65 1172.95
-130.262 252.644 1172.94
-131.469 252.308 1172.74
-132.701 251.928 1172.52
-133.969 251.504 1172.29
-135.281 251.036 1172.04
-136.645 250.524 1171.77
-141.291 248.723 1170.85
-141.383 248.686 1170.83
-141.506 248.635 1170.81
-143.256 247.881 1170.44
-144.959 247.12 1170.08
-146.588 246.352 1169.71
-147.713 245.793 1169.46
-149.798 244.676 1168.96
-82.4153 214.498 1166.93
-82.4169 214.498 1166.93
-82.3727 216.916 1167.6
-82.4052 217.647 1167.79
-82.4589 218.343 1167.98
-82.5347 219.027 1168.16
-82.6349 219.724 1168.34
-82.7643 220.459 1168.53
-82.9294 221.263 1168.73
-82.9481 221.334 1168.75
-82.9664 221.395 1168.77
-82.9845 221.45 1168.78
-83.0022 221.499 1168.79
-83.8184 225.234 1169.74
-83.9027 225.473 1169.79
-84.25 226.583 1170.07
-84.6903 227.772 1170.35
-84.743 227.905 1170.38
-85.2862 229.112 1170.66
-85.9701 230.378 1170.95
-85.9754 230.39 1170.95
-85.9805 230.401 1170.95
-85.9853 230.411 1170.95
-85.9898 230.421 1170.95
-88.7062 234.493 1171.82
-89.4813 235.726 1172.08
-141.344 248.697 1170.84
-141.397 248.677 1170.83
-141.462 248.652 1170.82
-141.54 248.62 1170.8
-143.425 247.804 1170.4
-145.358 246.931 1169.99
-147.306 245.987 1169.55
-150.899 244.032 1168.68
-151.151 243.881 1168.62
-152.815 242.793 1168.17
-154.499 241.549 1167.67
-156.706 239.587 1166.93
-83.3892 207.404 1164.9
-83.3977 207.407 1164.9
-83.4053 207.409 1164.9
-83.0738 208.929 1165.35
-82.9955 209.472 1165.5
-82.9218 210.055 1165.67
-82.8439 210.7 1165.85
-82.8051 210.971 1165.93
-82.7191 211.661 1166.13
-82.6227 212.441 1166.35
-82.5954 212.597 1166.39
-82.507 213.415 1166.63
-82.4277 214.317 1166.88
-82.4256 214.332 1166.88
-82.4242 214.345 1166.89
-82.4232 214.356 1166.89
-82.4228 214.366 1166.89
-82.423 214.376 1166.9
-82.4703 218.18 1167.93
-82.5415 218.898 1168.12
-82.6402 219.644 1168.32
-82.7696 220.429 1168.52
-82.9341 221.268 1168.73
-82.945 221.317 1168.75
-82.9562 221.364 1168.76
-82.9674 221.408 1168.77
-82.9785 221.45 1168.78
-84.1493 226.63 1170.09
-147.078 246.078 1169.59
-150.944 244.004 1168.67
-151.054 243.948 1168.64
-151.185 243.876 1168.61
-152.819 242.853 1168.18
-154.397 241.769 1167.74
-157.467 238.896 1166.67
-157.631 238.762 1166.62
-157.852 238.543 1166.54
-159.304 236.95 1165.97
-160.479 235.364 1165.43
-161.441 233.764 1164.9
-86.4157 201.004 1162.87
-86.4145 201.003 1162.87
-85.4901 202.623 1163.4
-85.0919 203.32 1163.63
-84.7188 203.999 1163.85
-84.3844 204.65 1164.05
-84.0963 205.265 1164.25
-83.856 205.847 1164.43
-83.6606 206.401 1164.6
-83.5038 206.932 1164.76
-83.493 206.969 1164.77
-83.4853 207 1164.78
-83.4798 207.027 1164.79
-83.4759 207.05 1164.8
-83.4731 207.07 1164.8
-82.7584 210.8 1165.89
-82.7407 210.937 1165.93
-82.6683 211.691 1166.14
-82.5888 212.506 1166.37
-82.58 212.577 1166.39
-82.5017 213.423 1166.63
-82.4973 213.461 1166.64
-82.4268 214.328 1166.88
-82.4263 214.334 1166.88
-82.4259 214.341 1166.89
-82.4257 214.347 1166.89
-82.4257 214.354 1166.89
-82.4259 214.36 1166.89
-82.4263 214.367 1166.89
-154.247 241.759 1167.75
-157.521 238.769 1166.63
-157.626 238.667 1166.59
-158.876 237.191 1166.07
-160.006 235.637 1165.54
-161.934 232.594 1164.53
-162.104 232.292 1164.44
-162.821 230.674 1163.93
-164.22 227.28 1162.87
-90.7467 195.007 1160.83
-89.0165 196.856 1161.5
-88.3823 197.694 1161.78
-87.8646 198.477 1162.05
-87.4232 199.216 1162.29
-86.679 200.542 1162.72
-86.648 200.595 1162.74
-86.6259 200.637 1162.75
-86.6096 200.671 1162.76
-86.5973 200.699 1162.77
-84.7541 204.054 1163.86
-84.4226 204.713 1164.07
-84.1348 205.326 1164.26
-83.7054 206.383 1164.59
-83.5243 206.927 1164.76
-83.5153 206.951 1164.76
-83.5077 206.974 1164.77
-83.5013 206.994 1164.78
-83.4961 207.012 1164.78
-83.4919 207.028 1164.79
-158.994 237.008 1166.01
-161.955 232.509 1164.51
-162.02 232.382 1164.47
-162.092 232.222 1164.42
-162.696 230.634 1163.93
-164.26 227.142 1162.83
-164.27 227.111 1162.82
-164.284 227.064 1162.8
-164.826 224.98 1162.18
-165.307 223.039 1161.61
-165.9 220.389 1160.83
-96.1928 189.425 1158.8
-94.5138 191.015 1159.39
-93.4702 192.082 1159.78
-92.5 193.105 1160.15
-91.6042 194.069 1160.49
-90.7832 194.966 1160.82
-90.7779 194.973 1160.82
-90.7742 194.977 1160.82
-87.5187 199.094 1162.25
-87.0723 199.857 1162.5
-86.6611 200.574 1162.73
-86.6431 200.601 1162.74
-86.6292 200.623 1162.75
-86.6183 200.642 1162.75
-86.6098 200.658 1162.76
-164.273 227.124 1162.82
-164.28 227.104 1162.82
-164.793 225.343 1162.29
-164.874 225.073 1162.21
-166.033 219.722 1160.64
-166.063 219.582 1160.59
-166.093 219.361 1160.53
-166.277 217.45 1159.99
-166.283 215.433 1159.44
-166.121 213.274 1158.86
-165.359 210.406 1158.15
-165.202 209.947 1158.04
-164.979 209.312 1157.89
-164.433 207.534 1157.45
-163.2 204.596 1156.76
-105.969 185.268 1156.76
-105.977 185.27 1156.76
-102.607 186.266 1157.34
-101.41 186.705 1157.57
-100.225 187.193 1157.82
-99.0557 187.736 1158.07
-97.9036 188.344 1158.35
-96.7706 189.028 1158.64
-96.6884 189.074 1158.66
-96.6247 189.113 1158.67
-93.4487 192.306 1159.84
-92.5033 193.189 1160.17
-90.7879 194.962 1160.81
-90.7839 194.966 1160.82
-90.7808 194.969 1160.82
-166.041 219.639 1160.61
-166.055 219.568 1160.59
-166.065 219.48 1160.57
-166.071 219.366 1160.53
-166.206 217.503 1160.01
-166.138 215.581 1159.49
-165.12 210.093 1158.09
-165.051 209.772 1158
-164.944 209.378 1157.91
-163.127 204.422 1156.72
-163.114 204.388 1156.71
-162.467 202.929 1156.37
-161.717 201.394 1156.02
-160.834 199.788 1155.66
-159.796 198.117 1155.3
-157.719 195.286 1154.72
-119.748 182.462 1154.72
-116.419 182.289 1154.98
-114.411 182.53 1155.23
-112.732 182.865 1155.48
-111.185 183.286 1155.74
-109.77 183.752 1155.99
-108.479 184.231 1156.24
-106.246 185.14 1156.7
-106.208 185.161 1156.71
-106.182 185.177 1156.72
-101.372 186.161 1157.43
-100.135 186.813 1157.72
-98.961 187.493 1158.02
-97.8365 188.213 1158.32
-96.7473 188.987 1158.63
-96.7045 189.018 1158.64
-96.6695 189.043 1158.65
-166.069 215.839 1159.57
-163.116 204.401 1156.71
-163.109 204.384 1156.71
-162.452 202.95 1156.38
-161.743 201.52 1156.05
-160.973 200.093 1155.73
-160.131 198.669 1155.42
-157.354 194.83 1154.63
-157.315 194.777 1154.62
-157.261 194.713 1154.61
-155.912 193.254 1154.33
-154.487 191.98 1154.11
-152.971 190.91 1153.96
-151.34 190.064 1153.88
-149.566 189.465 1153.88
-147.649 189.076 1153.95
-147.048 188.961 1153.98
-145.18 188.56 1154.04
-143.343 188.072 1154.07
-141.484 187.614 1154.12
-139.586 187.196 1154.18
-137.687 186.745 1154.23
-135.79 186.275 1154.28
-133.877 185.833 1154.34
-133.582 185.763 1154.34
-131.692 185.318 1154.4
-129.782 184.847 1154.45
-127.871 184.396 1154.5
-125.969 183.98 1154.56
-124.036 183.509 1154.61
-122.056 182.964 1154.64
-120.081 182.509 1154.7
-120.068 182.509 1154.7
-120.057 182.509 1154.7
-115.617 183.211 1155.31
-114.129 183.39 1155.49
-112.701 183.603 1155.68
-111.326 183.848 1155.88
-110 184.126 1156.08
-108.715 184.439 1156.28
-107.466 184.786 1156.49
-106.247 185.169 1156.71
-106.234 185.174 1156.71
-106.222 185.179 1156.71
-106.211 185.184 1156.71
-160.127 198.677 1155.43
-157.32 194.789 1154.62
-157.293 194.758 1154.61
-157.26 194.725 1154.61
-155.881 193.292 1154.34
-154.396 192.045 1154.14
-152.792 191.017 1154.01
-151.063 190.225 1153.95
-149.215 189.654 1153.97
-147.279 189.232 1154.03
-145.349 188.794 1154.09
-143.467 188.276 1154.12
-141.567 187.783 1154.16
-139.631 187.333 1154.22
-137.699 186.857 1154.26
-137.507 186.803 1154.27
-135.603 186.316 1154.31
-133.693 185.852 1154.36
-131.769 185.392 1154.41
-129.832 184.9 1154.46
-127.901 184.425 1154.5
-125.983 183.999 1154.56
-124.037 183.525 1154.61
-123.992 183.511 1154.61
-122.022 182.965 1154.65
-120.073 182.508 1154.7
-120.066 182.507 1154.7
-120.059 182.507 1154.7
-114.095 183.347 1155.48
-93.4853 247.477 1146.93
-94.1632 248.421 1147.1
-94.9254 249.355 1147.25
-95.7822 250.274 1147.4
-96.7444 251.173 1147.52
-97.8095 252.053 1147.63
-98.9597 252.917 1147.73
-100.921 254.27 1147.86
-102.235 255.142 1147.94
-103.554 256.011 1148.02
-104.862 256.868 1148.1
-106.148 257.695 1148.17
-107.407 258.475 1148.24
-109.644 259.732 1148.32
-110.876 260.308 1148.33
-112.093 260.778 1148.32
-113.297 261.152 1148.29
-114.485 261.44 1148.24
-115.651 261.652 1148.17
-116.789 261.795 1148.09
-117.891 261.877 1147.99
-118.952 261.905 1147.89
-119.295 261.901 1147.85
-120.351 261.858 1147.73
-121.368 261.771 1147.6
-122.349 261.649 1147.47
-123.304 261.498 1147.33
-124.247 261.328 1147.19
-124.959 261.183 1147.08
-126.005 260.977 1146.92
-128 260.554 1146.6
-86.7345 235.215 1144.56
-87.7087 237.602 1145.06
-88.3771 238.987 1145.34
-88.9272 240.056 1145.55
-89.4842 241.066 1145.74
-90.0503 242.035 1145.93
-91.081 243.691 1146.23
-91.7091 244.665 1146.41
-92.3303 245.603 1146.58
-92.3363 245.612 1146.59
-92.3418 245.619 1146.59
-94.5676 249.43 1147.31
-95.5058 250.396 1147.46
-96.5232 251.31 1147.58
-98.51 252.823 1147.75
-99.7338 253.671 1147.83
-100.985 254.502 1147.91
-102.243 255.325 1147.99
-103.492 256.146 1148.06
-104.728 256.959 1148.14
-105.954 257.75 1148.21
-107.173 258.504 1148.27
-107.273 258.565 1148.27
-108.473 259.253 1148.32
-109.672 259.876 1148.35
-110.872 260.418 1148.36
-112.072 260.868 1148.35
-113.274 261.228 1148.31
-114.478 261.505 1148.26
-116.713 261.827 1148.1
-117.888 261.906 1148
-119.063 261.933 1147.88
-120.234 261.916 1147.76
-121.4 261.863 1147.62
-122.555 261.78 1147.48
-123.694 261.675 1147.33
-128.157 260.531 1146.58
-128.168 260.53 1146.58
-128.18 260.528 1146.57
-128.193 260.527 1146.57
-129.317 260.361 1146.41
-130.453 260.178 1146.25
-131.592 259.973 1146.08
-132.723 259.743 1145.9
-133.092 259.643 1145.84
-134.307 259.345 1145.63
-135.511 259.011 1145.42
-136.708 258.637 1145.21
-137.901 258.225 1144.98
-139.965 257.43 1144.56
-85.018 226.421 1142.53
-85.0215 226.422 1142.53
-85.2022 228.751 1143.1
-85.3211 229.667 1143.31
-85.4808 230.614 1143.54
-85.6933 231.617 1143.76
-85.9695 232.703 1144.01
-86.3141 233.893 1144.27
-86.7289 235.199 1144.56
-86.7294 235.2 1144.56
-86.7299 235.202 1144.56
-86.7303 235.203 1144.56
-86.7307 235.204 1144.56
-88.6754 239.09 1145.33
-89.1453 240.018 1145.51
-89.6351 240.948 1145.7
-90.1437 241.881 1145.88
-90.6694 242.814 1146.06
-91.2106 243.746 1146.23
-91.7652 244.675 1146.41
-92.3341 245.602 1146.58
-92.3364 245.606 1146.58
-92.3388 245.61 1146.58
-92.3411 245.613 1146.59
-95.4117 250.202 1147.42
-96.3652 251.092 1147.54
-128.165 260.527 1146.58
-128.172 260.526 1146.57
-128.179 260.525 1146.57
-128.186 260.524 1146.57
-128.195 260.522 1146.57
-129.339 260.328 1146.4
-130.525 260.115 1146.22
-131.748 259.878 1146.04
-133.005 259.615 1145.84
-134.293 259.323 1145.63
-135.609 258.998 1145.41
-140.258 257.326 1144.5
-140.289 257.317 1144.5
-140.328 257.305 1144.49
-141.634 256.851 1144.24
-143.008 256.368 1143.97
-143.47 256.191 1143.88
-145.138 255.558 1143.55
-146.855 254.85 1143.19
-149.789 253.452 1142.53
-85.3059 218.423 1140.49
-85.3049 218.423 1140.49
-85.3048 218.423 1140.49
-84.8824 220.641 1141.09
-84.7897 221.366 1141.28
-84.7295 222.095 1141.47
-84.705 222.832 1141.66
-84.7173 223.583 1141.85
-84.7655 224.358 1142.04
-84.8471 225.173 1142.23
-84.96 226.041 1142.44
-84.9636 226.071 1142.45
-84.9677 226.098 1142.45
-84.9721 226.121 1142.46
-84.9768 226.142 1142.46
-85.0658 229.592 1143.32
-85.2772 230.546 1143.54
-85.5438 231.588 1143.77
-85.874 232.723 1144.02
-86.2696 233.935 1144.29
-86.7284 235.2 1144.56
-86.7287 235.201 1144.56
-86.7289 235.201 1144.56
-86.7292 235.202 1144.56
-88.4711 239.217 1145.38
-140.3 257.313 1144.5
-140.321 257.305 1144.49
-140.346 257.296 1144.49
-141.722 256.805 1144.22
-143.185 256.273 1143.93
-144.712 255.697 1143.63
-146.274 255.072 1143.31
-150.173 253.253 1142.44
-150.231 253.223 1142.43
-150.308 253.179 1142.41
-151.919 252.25 1142
-153.443 251.267 1141.6
-154.868 250.229 1141.19
-157.009 248.348 1140.49
-87.6965 211.343 1138.46
-87.6952 211.343 1138.46
-86.8163 212.979 1138.96
-86.4726 213.674 1139.17
-86.1381 214.504 1139.42
-85.8839 215.344 1139.66
-85.6901 216.237 1139.9
-85.5779 216.817 1140.06
-85.3969 217.906 1140.35
-85.3878 217.958 1140.36
-85.3822 218.001 1140.38
-85.3791 218.037 1140.39
-85.3777 218.067 1140.39
-84.8283 222.04 1141.45
-84.8255 222.79 1141.64
-84.8411 223.552 1141.83
-84.8729 224.339 1142.02
-84.9196 225.165 1142.22
-84.9834 226.04 1142.44
-84.9839 226.055 1142.44
-84.9844 226.067 1142.44
-84.9851 226.079 1142.45
-84.9859 226.09 1142.45
-84.9869 226.101 1142.45
-84.9882 226.111 1142.46
-84.9897 226.121 1142.46
-85.5878 231.473 1143.74
-150.198 253.236 1142.43
-150.232 253.22 1142.43
-150.273 253.199 1142.42
-151.812 252.337 1142.04
-153.332 251.42 1141.65
-154.815 250.447 1141.25
-157.351 248.066 1140.38
-157.423 248.014 1140.36
-158.645 246.929 1139.96
-159.786 245.791 1139.56
-160.796 244.612 1139.15
-162.192 242.433 1138.46
-91.8839 205.014 1136.43
-90.6757 206.471 1136.92
-89.6544 207.943 1137.4
-88.9976 208.995 1137.73
-88.1304 210.548 1138.21
-88.0592 210.674 1138.25
-88.0131 210.76 1138.28
-87.9817 210.82 1138.3
-86.0902 214.895 1139.52
-85.8664 215.782 1139.77
-85.746 216.296 1139.91
-85.5442 217.308 1140.18
-85.4162 217.908 1140.35
-85.4103 217.928 1140.35
-85.4057 217.947 1140.36
-85.402 217.965 1140.36
-85.3991 217.983 1140.37
-85.3968 218 1140.37
-85.3951 218.017 1140.38
-85.394 218.033 1140.38
-157.371 248.039 1140.37
-157.407 248.013 1140.36
-157.447 247.978 1140.35
-158.716 246.775 1139.92
-159.891 245.505 1139.47
-162.307 242.213 1138.39
-162.332 242.174 1138.38
-162.365 242.114 1138.36
-163.112 240.564 1137.89
-163.806 238.993 1137.43
-164.461 237.413 1136.96
-165.166 235.597 1136.43
-97.0429 199.089 1134.4
-95.6284 200.34 1134.86
-94.5985 201.381 1135.23
-93.6332 202.498 1135.61
-93.3567 202.818 1135.72
-92.5612 203.929 1136.09
-92.4796 204.044 1136.12
-92.4228 204.133 1136.15
-92.3821 204.204 1136.17
-92.3522 204.263 1136.19
-89.6654 207.119 1137.19
-89.2521 207.931 1137.44
-89.1791 208.074 1137.48
-88.8077 208.868 1137.72
-88.4421 209.681 1137.96
-88.4154 209.746 1137.98
-88.0586 210.547 1138.22
-88.0473 210.576 1138.23
-88.0369 210.603 1138.24
-88.0271 210.628 1138.25
-88.0176 210.651 1138.25
-88.0082 210.672 1138.26
-87.9988 210.693 1138.26
-87.9897 210.712 1138.27
-87.981 210.73 1138.28
-85.8638 215.312 1139.65
-162.313 242.191 1138.39
-162.329 242.167 1138.38
-162.347 242.136 1138.37
-163.013 240.667 1137.93
-163.638 239.135 1137.48
-165.424 234.7 1136.18
-165.482 234.515 1136.13
-165.56 234.227 1136.04
-165.99 232.483 1135.56
-166.421 230.124 1134.92
-166.589 228.113 1134.4
-165.163 219.4 1132.36
-105.582 194.535 1132.36
-103.13 195.452 1132.85
-101.602 196.205 1133.2
-99.9862 197.133 1133.6
-99.5051 197.43 1133.72
-98.1097 198.352 1134.1
-97.9596 198.469 1134.15
-95.7183 200.778 1134.96
-93.7983 202.722 1135.65
-92.7128 203.964 1136.08
-92.629 204.064 1136.11
-92.5664 204.146 1136.14
-92.5203 204.214 1136.16
-165.44 234.595 1136.15
-165.47 234.504 1136.12
-165.504 234.394 1136.09
-165.542 234.258 1136.05
-165.939 232.676 1135.62
-166.266 231.077 1135.18
-166.61 226.965 1134.11
-166.607 226.743 1134.05
-166.454 225.126 1133.66
-166.09 223.505 1133.29
-165.034 218.878 1132.24
-164.996 218.77 1132.22
-164.385 217.103 1131.86
-163.619 215.446 1131.53
-162.719 213.787 1131.21
-161.697 212.115 1130.89
-159.51 208.963 1130.33
-119.892 192.429 1130.33
-117.658 192.083 1130.48
-115.936 192.092 1130.66
-113.787 192.335 1130.95
-111.983 192.656 1131.22
-110.277 193.052 1131.49
-108.692 193.489 1131.77
-107.234 193.945 1132.04
-105.899 194.41 1132.3
-105.857 194.429 1132.3
-101.316 196.219 1133.23
-99.6892 197.22 1133.65
-98.1626 198.262 1134.07
-98.0652 198.33 1134.1
-97.9917 198.389 1134.12
-97.9357 198.44 1134.14
-165.917 232.722 1135.63
-166.597 226.914 1134.1
-166.596 226.788 1134.07
-166.576 226.626 1134.03
-166.345 224.813 1133.6
-165.025 218.871 1132.24
-165.02 218.828 1132.23
-165.008 218.778 1132.22
-164.988 218.722 1132.21
-164.391 217 1131.84
-163.676 215.384 1131.51
-162.856 213.852 1131.21
-161.947 212.382 1130.93
-159.355 208.748 1130.29
-159.337 208.724 1130.29
-159.313 208.694 1130.28
-158.021 207.043 1130
-156.716 205.469 1129.74
-155.398 203.996 1129.51
-154.052 202.679 1129.32
-152.649 201.557 1129.19
-151.152 200.656 1129.12
-149.51 200.001 1129.13
-148.56 199.785 1129.17
-146.756 199.473 1129.28
-144.911 199.151 1129.4
-143.092 198.698 1129.47
-141.262 198.22 1129.54
-139.381 197.778 1129.63
-138.816 197.676 1129.66
-136.966 197.222 1129.74
-135.104 196.725 1129.81
-133.231 196.241 1129.89
-131.326 195.748 1129.96
-129.377 195.194 1130.03
-129.136 195.144 1130.04
-127.243 194.609 1130.11
-125.381 194.145 1130.19
-123.439 193.59 1130.25
-121.395 192.887 1130.29
-121.361 192.879 1130.29
-121.331 192.872 1130.29
-115.248 193.139 1131
-113.611 193.131 1131.17
-111.996 193.19 1131.35
-110.421 193.342 1131.55
-108.895 193.599 1131.78
-107.41 193.956 1132.02
-107.305 193.978 1132.04
-105.927 194.409 1132.29
-105.909 194.417 1132.3
-105.895 194.425 1132.3
-162.157 212.602 1130.97
-159.349 208.735 1130.29
-159.337 208.72 1130.29
-159.323 208.703 1130.28
-158.064 207.07 1130.01
-156.739 205.446 1129.74
-154.228 202.749 1129.32
-152.73 201.491 1129.16
-151.073 200.477 1129.08
-149.214 199.785 1129.1
-147.205 199.347 1129.2
-145.2 198.893 1129.3
-143.248 198.333 1129.36
-141.286 197.806 1129.44
-139.301 197.333 1129.53
-137.318 196.832 1129.61
-135.344 196.314 1129.69
-133.375 195.838 1129.77
-131.395 195.362 1129.86
-129.396 194.836 1129.94
-127.414 194.345 1130.02
-125.47 193.952 1130.13
-123.478 193.468 1130.21
-121.412 192.816 1130.27
-121.384 192.814 1130.27
-121.358 192.814 1130.27
-116.364 192.036 1130.6
-113.443 192.492 1131.02
-91.2704 257.11 1121.67
-92.1144 258.239 1121.83
-92.3015 258.465 1121.86
-92.5078 258.697 1121.89
-97.1139 262.427 1122.21
-97.1156 262.429 1122.21
-97.1176 262.431 1122.21
-97.1197 262.432 1122.21
-98.2473 263.271 1122.27
-99.4468 264.121 1122.32
-100.711 264.987 1122.37
-102.035 265.866 1122.42
-103.407 266.745 1122.46
-103.494 266.794 1122.46
-104.916 267.654 1122.49
-106.358 268.465 1122.51
-107.803 269.204 1122.51
-109.239 269.85 1122.49
-110.652 270.378 1122.45
-112.041 270.78 1122.37
-113.414 271.065 1122.28
-113.434 271.068 1122.28
-113.452 271.07 1122.28
-113.469 271.07 1122.27
-113.484 271.069 1122.27
-118.741 271.415 1121.73
-119.932 271.264 1121.56
-86.5889 243.927 1119.2
-87.5675 248.726 1120.19
-87.5688 248.732 1120.19
-87.5704 248.739 1120.19
-87.5725 248.746 1120.19
-87.5751 248.755 1120.19
-87.8532 249.883 1120.42
-88.5506 252.111 1120.85
-89.0459 253.313 1121.07
-89.6501 254.537 1121.27
-90.3761 255.774 1121.47
-91.2147 257.01 1121.66
-92.1334 258.216 1121.83
-93.0979 259.366 1121.98
-93.535 259.84 1122.04
-97.1106 262.426 1122.21
-97.1143 262.429 1122.21
-97.1184 262.433 1122.21
-98.232 263.272 1122.27
-99.4088 264.116 1122.33
-99.4751 264.16 1122.33
-100.749 265.035 1122.38
-102.084 265.924 1122.43
-103.472 266.81 1122.47
-104.898 267.67 1122.5
-106.345 268.482 1122.52
-107.798 269.221 1122.51
-109.239 269.865 1122.49
-110.655 270.39 1122.45
-112.043 270.788 1122.38
-113.415 271.068 1122.28
-113.459 271.074 1122.28
-113.498 271.077 1122.27
-113.53 271.076 1122.27
-118.544 271.428 1121.76
-119.772 271.286 1121.58
-121.003 271.102 1121.4
-121.327 271.042 1121.35
-122.513 270.829 1121.16
-123.698 270.602 1120.97
-124.88 270.362 1120.77
-126.059 270.108 1120.58
-127.23 269.839 1120.38
-128.394 269.551 1120.18
-128.398 269.55 1120.17
-128.403 269.549 1120.17
-128.406 269.548 1120.17
-87.0584 235.283 1117.16
-86.5463 239.683 1118.23
-86.5457 239.699 1118.24
-86.5451 239.716 1118.24
-86.5447 239.735 1118.24
-86.5448 239.755 1118.25
-86.5454 239.778 1118.25
-86.5078 240.588 1118.44
-86.4948 241.408 1118.63
-86.512 242.243 1118.82
-86.5642 243.096 1119.01
-86.6539 243.97 1119.2
-86.7807 244.862 1119.39
-87.5687 248.717 1120.18
-87.5716 248.727 1120.19
-87.5752 248.737 1120.19
-87.5798 248.75 1120.19
-87.8889 249.824 1120.4
-88.259 250.912 1120.61
-88.6886 251.987 1120.8
-88.8307 252.272 1120.85
-89.3594 253.382 1121.04
-89.9294 254.436 1121.22
-90.529 255.428 1121.38
-90.8408 255.923 1121.45
-91.4964 256.881 1121.6
-92.1616 257.769 1121.72
-92.6581 258.383 1121.8
-93.4188 259.239 1121.91
-94.2274 260.053 1122
-95.1063 260.845 1122.08
-96.0436 261.609 1122.15
-114.314 271.181 1122.2
-116.146 271.35 1122.02
-117.488 271.358 1121.87
-118.809 271.289 1121.7
-120.11 271.158 1121.52
-121.389 270.979 1121.32
-122.642 270.768 1121.13
-124.652 270.387 1120.81
-125.939 270.118 1120.59
-127.186 269.84 1120.38
-128.392 269.551 1120.18
-128.401 269.549 1120.17
-128.409 269.547 1120.17
-132.825 268.192 1119.34
-134.249 267.71 1119.07
-135.7 267.189 1118.78
-135.913 267.119 1118.74
-137.296 266.583 1118.45
-138.709 266.006 1118.15
-138.717 266.004 1118.15
-138.723 266.001 1118.15
-88.6999 226.457 1114.95
-87.3934 231.26 1116.2
-87.3909 231.277 1116.21
-87.3883 231.296 1116.21
-87.3857 231.318 1116.22
-87.383 231.342 1116.22
-87.3803 231.369 1116.23
-87.2955 232.161 1116.42
-87.2207 232.953 1116.61
-87.154 233.74 1116.8
-87.0943 234.518 1116.98
-87.0402 235.286 1117.17
-86.9911 236.041 1117.35
-86.5529 239.646 1118.22
-86.5536 239.677 1118.23
-86.5546 239.712 1118.24
-86.5562 239.752 1118.25
-86.5584 239.8 1118.26
-86.5445 240.641 1118.45
-86.5553 241.483 1118.64
-86.5909 242.327 1118.83
-86.6511 243.176 1119.02
-86.7357 244.032 1119.21
-86.8442 244.901 1119.39
-86.9777 245.792 1119.58
-87.5437 248.598 1120.16
-87.5415 248.597 1120.16
-128.482 269.528 1120.16
-130.659 268.921 1119.77
-131.837 268.554 1119.54
-133.064 268.146 1119.31
-134.35 267.694 1119.05
-135.71 267.192 1118.78
-137.155 266.633 1118.48
-137.355 266.555 1118.44
-138.712 266.005 1118.15
-138.724 266 1118.15
-138.734 265.995 1118.15
-143.617 264.128 1117.15
-145.141 263.438 1116.81
-146.656 262.705 1116.47
-148.147 261.922 1116.11
-148.154 261.919 1116.11
-148.16 261.916 1116.11
-89.7171 223.336 1114.11
-89.7132 223.343 1114.11
-89.7091 223.35 1114.12
-89.7047 223.359 1114.12
-89.7 223.369 1114.12
-89.695 223.38 1114.13
-89.3879 224.142 1114.34
-89.0948 224.92 1114.55
-88.6127 226.346 1114.93
-88.3755 227.144 1115.14
-88.1575 227.966 1115.36
-87.3794 231.232 1116.2
-87.3741 231.271 1116.21
-87.3692 231.318 1116.22
-87.3645 231.375 1116.23
-87.2644 232.189 1116.43
-87.181 233.016 1116.63
-87.1092 233.849 1116.83
-87.0424 234.686 1117.03
-86.9453 235.832 1117.3
-86.8732 236.592 1117.49
-86.7921 237.362 1117.67
-86.5829 239.253 1118.13
-86.5811 239.253 1118.13
-138.819 265.96 1118.13
-141.865 264.758 1117.5
-143.488 264.089 1117.15
-145.094 263.393 1116.81
-146.654 262.671 1116.46
-148.148 261.92 1116.11
-148.161 261.913 1116.11
-150.824 259.997 1115.36
-152.153 259.105 1115
-154.594 257.24 1114.28
-154.662 257.187 1114.26
-154.716 257.14 1114.24
-154.757 257.099 1114.23
-93.3976 216.821 1112.19
-93.3732 216.855 1112.2
-93.3491 216.891 1112.21
-93.3252 216.929 1112.22
-93.3012 216.968 1112.23
-92.6293 217.996 1112.55
-92.0492 218.93 1112.83
-91.9714 219.073 1112.87
-91.4524 219.959 1113.14
-89.7271 223.326 1114.11
-89.7218 223.336 1114.11
-89.7158 223.348 1114.12
-89.709 223.361 1114.12
-89.7013 223.378 1114.12
-89.4189 224.115 1114.33
-89.1505 224.84 1114.52
-88.8944 225.558 1114.72
-88.6501 226.272 1114.91
-88.5398 226.583 1115
-88.2921 227.374 1115.21
-88.0622 228.172 1115.42
-87.8517 228.974 1115.62
-87.4548 230.802 1116.09
-87.4501 230.8 1116.09
-148.231 261.874 1116.09
-150.86 260.152 1115.39
-152.154 259.211 1115.02
-153.418 258.229 1114.65
-154.654 257.204 1114.27
-154.753 257.112 1114.23
-157.533 254.371 1113.28
-158.748 253.045 1112.83
-159.903 251.676 1112.38
-159.994 251.558 1112.35
-160.061 251.46 1112.32
-162.526 247.709 1111.17
-98.116 210.006 1110.07
-98.1017 210.02 1110.08
-98.0869 210.036 1110.08
-98.0712 210.055 1110.09
-97.514 210.794 1110.32
-96.5253 212.119 1110.74
-95.9762 212.828 1110.97
-95.4058 213.549 1111.2
-93.4026 216.761 1112.17
-93.3645 216.816 1112.19
-93.3195 216.883 1112.21
-93.2654 216.966 1112.24
-92.5587 217.978 1112.55
-91.9614 218.896 1112.83
-91.4551 219.732 1113.08
-91.0202 220.509 1113.31
-90.764 221.02 1113.46
-89.7822 223.182 1114.07
-89.7801 223.181 1114.07
-155.266 256.661 1114.07
-157.278 254.712 1113.39
-158.58 253.292 1112.91
-159.828 251.798 1112.42
-160.016 251.556 1112.34
-160.134 251.387 1112.29
-162.464 247.886 1111.21
-163.216 246.327 1110.77
-163.861 244.735 1110.33
-163.903 244.618 1110.3
-163.93 244.52 1110.27
-165.081 239.918 1109.08
-108.772 202.806 1107.17
-104.844 204.694 1108.07
-104.809 204.708 1108.07
-104.771 204.726 1108.08
-103.74 205.331 1108.34
-102.693 206.109 1108.64
-101.63 207.024 1108.98
-98.1518 209.992 1110.06
-98.1253 210.022 1110.07
-98.0914 210.064 1110.09
-97.1544 211.463 1110.52
-96.5538 212.313 1110.78
-95.6185 213.59 1111.19
-94.7578 214.77 1111.56
-93.7714 216.282 1112.02
-160.775 250.538 1112.02
-161.871 248.947 1111.53
-162.652 247.553 1111.12
-163.318 246.116 1110.71
-163.891 244.644 1110.3
-163.941 244.455 1110.25
-164.792 241.306 1109.43
-165.035 239.731 1109.04
-165.212 238.164 1108.66
-165.329 236.619 1108.29
-165.338 236.493 1108.26
-165.348 236.385 1108.24
-163.713 227.48 1106.39
-163.147 225.763 1106.06
-163.127 225.706 1106.05
-163.108 225.657 1106.04
-163.088 225.614 1106.03
-160.482 220.59 1105.19
-124.996 204.358 1105.63
-117.749 201.92 1105.92
-117.746 201.92 1105.92
-117.744 201.919 1105.92
-117.741 201.918 1105.92
-116.013 201.598 1106.05
-115.955 201.594 1106.05
-114.128 201.524 1106.25
-112.293 201.689 1106.5
-110.495 202.041 1106.79
-108.776 202.534 1107.11
-104.887 204.636 1108.05
-104.834 204.657 1108.06
-104.77 204.687 1108.07
-103.73 205.218 1108.32
-102.676 205.897 1108.6
-101.649 206.653 1108.89
-101.184 207.012 1109.03
-100.182 207.865 1109.34
-98.2926 209.783 1110
-98.2868 209.781 1110
-164.271 243.515 1110
-164.838 241.501 1109.47
-165.131 239.875 1109.06
-165.299 238.256 1108.67
-165.37 236.662 1108.3
-165.361 236.427 1108.25
-165.337 236.251 1108.21
-164.536 231.14 1107.13
-164.423 230.707 1107.05
-164.175 228.942 1106.67
-163.735 227.283 1106.34
-163.155 225.705 1106.05
-163.115 225.619 1106.03
-163.077 225.552 1106.02
-160.659 220.778 1105.21
-160.361 220.356 1105.15
-159.427 218.916 1104.93
-158.456 217.438 1104.7
-157.451 215.915 1104.47
-156.404 214.373 1104.24
-155.296 212.864 1104.02
-155.261 212.821 1104.02
-155.227 212.783 1104.01
-151.08 209.002 1103.63
-150.707 208.7 1103.61
-144.908 207.191 1103.94
-144.89 207.182 1103.94
-144.87 207.177 1103.94
-144.849 207.174 1103.94
-143.011 207.008 1104.12
-141.195 206.798 1104.29
-139.398 206.574 1104.45
-137.61 206.368 1104.61
-135.83 206.179 1104.77
-134.058 206 1104.94
-132.298 205.825 1105.11
-130.545 205.649 1105.27
-128.792 205.472 1105.44
-127.045 205.304 1105.6
-125.319 205.161 1105.77
-124.523 205.116 1105.85
-122.754 204.988 1106.03
-120.961 204.839 1106.21
-117.746 201.933 1105.92
-117.737 201.934 1105.92
-115.945 201.961 1106.14
-114.14 202.361 1106.44
-112.314 202.908 1106.78
-110.444 203.364 1107.1
-108.641 203.692 1107.39
-107.09 203.982 1107.64
-105.362 204.501 1107.96
-165.381 235.186 1107.96
-165.367 233.689 1107.62
-162.805 224.929 1105.91
-161.663 222.564 1105.5
-160.775 221.014 1105.25
-159.811 219.457 1105.01
-159.314 218.7 1104.89
-158.371 217.262 1104.67
-157.389 215.781 1104.45
-156.362 214.288 1104.23
-155.277 212.83 1104.02
-155.207 212.75 1104.01
-152.325 209.875 1103.69
-150.921 208.78 1103.6
-149.397 207.906 1103.58
-144.928 207.185 1103.94
-144.89 207.174 1103.94
-144.846 207.166 1103.94
-142.995 206.959 1104.11
-141.164 206.683 1104.26
-139.345 206.378 1104.41
-137.53 206.071 1104.55
-135.717 205.76 1104.69
-133.908 205.437 1104.83
-132.105 205.095 1104.96
-130.302 204.738 1105.09
-128.491 204.373 1105.22
-126.688 203.997 1105.34
-124.908 203.602 1105.46
-123.12 203.206 1105.58
-121.299 202.825 1105.71
-117.847 201.944 1105.91
-154.448 211.846 1103.89
-152.777 210.152 1103.7
-151.375 209.054 1103.61
-149.878 208.192 1103.59
-148.283 207.608 1103.64
-145.417 207.229 1103.89
-82.292 262.326 1096.15
-82.8133 263.541 1096.33
-83.4116 264.725 1096.5
-84.07 265.872 1096.65
-84.774 266.98 1096.79
-85.5128 268.052 1096.92
-86.2844 269.096 1097.03
-87.0999 270.119 1097.14
-87.9782 271.125 1097.24
-88.9396 272.119 1097.32
-89.1505 272.317 1097.33
-90.2 273.264 1097.39
-91.3717 274.206 1097.44
-92.6469 275.132 1097.46
-93.9933 276.027 1097.47
-94.1806 276.142 1097.47
-95.5739 276.994 1097.47
-96.9788 277.793 1097.45
-98.3647 278.527 1097.43
-99.7158 279.19 1097.39
-101.037 279.783 1097.34
-102.335 280.309 1097.28
-103.619 280.769 1097.21
-104.895 281.163 1097.13
-106.17 281.488 1097.03
-107.451 281.741 1096.92
-108.746 281.924 1096.79
-110.061 282.035 1096.64
-111.399 282.074 1096.47
-112.765 282.04 1096.29
-114.351 281.921 1096.06
-116.224 281.652 1095.76
-80.9664 249.795 1093.72
-80.9705 249.798 1093.72
-80.8753 252.233 1094.24
-80.8954 253.091 1094.41
-80.9302 253.973 1094.59
-80.9756 254.909 1094.78
-81.0023 255.257 1094.85
-81.0629 256.203 1095.04
-81.157 257.262 1095.24
-81.181 257.437 1095.28
-81.3242 258.563 1095.49
-81.3424 258.655 1095.51
-81.5489 259.848 1095.73
-81.5518 259.859 1095.73
-81.5549 259.869 1095.73
-81.5582 259.879 1095.73
-81.5616 259.888 1095.74
-82.9866 263.564 1096.31
-83.5125 264.628 1096.47
-84.1069 265.692 1096.61
-84.762 266.751 1096.75
-84.8976 266.987 1096.78
-85.5958 268.004 1096.9
-86.3379 269.016 1097.01
-87.1351 270.027 1097.12
-87.2539 270.163 1097.13
-88.1205 271.156 1097.22
-89.0812 272.149 1097.31
-90.1564 273.14 1097.37
-91.3588 274.124 1097.42
-91.4701 274.208 1097.42
-92.7751 275.164 1097.45
-94.1542 276.087 1097.46
-95.5737 276.963 1097.46
-97.0004 277.779 1097.45
-98.4025 278.522 1097.42
-99.7631 279.186 1097.38
-101.087 279.773 1097.33
-102.381 280.285 1097.27
-103.652 280.722 1097.2
-104.908 281.087 1097.11
-106.156 281.377 1097.01
-107.403 281.595 1096.89
-108.658 281.741 1096.76
-109.924 281.816 1096.61
-111.204 281.823 1096.45
-112.501 281.763 1096.27
-116.849 281.504 1095.65
-116.918 281.49 1095.64
-117.003 281.469 1095.62
-118.367 281.103 1095.37
-119.738 280.703 1095.11
-121.113 280.285 1094.84
-122.489 279.864 1094.58
-123.864 279.45 1094.31
-125.237 279.044 1094.05
-126.983 278.538 1093.72
-84.7221 242.354 1091.69
-84.7222 242.354 1091.69
-83.3855 244.223 1092.25
-82.8858 244.983 1092.47
-82.406 245.79 1092.7
-81.9663 246.65 1092.94
-81.8266 246.9 1093.01
-81.4943 247.742 1093.23
-81.2196 248.635 1093.45
-81.0037 249.575 1093.67
-80.9992 249.591 1093.67
-80.9961 249.605 1093.68
-80.9942 249.617 1093.68
-80.9931 249.628 1093.68
-80.9927 249.639 1093.68
-81.1186 253.15 1094.4
-81.1233 254.073 1094.59
-81.1376 255.081 1094.79
-81.1704 256.172 1095.02
-81.2362 257.34 1095.25
-81.355 258.57 1095.49
-81.3627 258.646 1095.5
-81.5516 259.854 1095.73
-81.5532 259.862 1095.73
-81.5551 259.87 1095.73
-81.5575 259.877 1095.73
-112.112 281.624 1096.29
-116.886 281.489 1095.64
-116.927 281.483 1095.63
-116.973 281.474 1095.63
-118.29 281.123 1095.38
-119.622 280.739 1095.13
-120.967 280.33 1094.87
-122.322 279.904 1094.61
-123.684 279.469 1094.34
-127.745 278.3 1093.57
-127.833 278.273 1093.55
-127.942 278.239 1093.53
-129.263 277.813 1093.27
-130.58 277.374 1093.01
-131.89 276.923 1092.75
-133.187 276.46 1092.49
-134.469 275.987 1092.22
-135.731 275.507 1091.96
-137.002 275.009 1091.69
-88.3753 234.85 1089.66
-87.7307 236.319 1090.05
-87.129 237.649 1090.4
-86.6331 238.691 1090.68
-86.1565 239.646 1090.94
-85.6987 240.53 1091.19
-85.2601 241.356 1091.41
-84.841 242.135 1091.63
-84.8283 242.158 1091.64
-84.8185 242.177 1091.64
-82.6216 244.834 1092.48
-82.1624 245.77 1092.73
-81.7683 246.717 1092.98
-81.4444 247.671 1093.22
-81.1891 248.628 1093.45
-80.9979 249.58 1093.67
-80.9954 249.59 1093.67
-80.9936 249.6 1093.68
-80.9925 249.609 1093.68
-80.9919 249.617 1093.68
-80.9916 249.625 1093.68
-127.792 278.289 1093.56
-127.835 278.278 1093.56
-127.883 278.266 1093.55
-127.936 278.251 1093.54
-127.995 278.235 1093.53
-129.38 277.811 1093.26
-130.758 277.379 1092.99
-132.13 276.937 1092.72
-133.497 276.483 1092.45
-134.859 276.017 1092.18
-138.062 274.629 1091.47
-138.19 274.587 1091.45
-138.351 274.531 1091.42
-139.733 274.023 1091.13
-141.111 273.493 1090.84
-142.484 272.936 1090.55
-143.843 272.345 1090.25
-146.392 271.088 1089.66
-92.3719 227.559 1087.63
-92.3721 227.56 1087.63
-91.2404 229.726 1088.23
-90.7191 230.694 1088.49
-90.1486 231.733 1088.78
-89.5292 232.841 1089.09
-89.3899 233.087 1089.16
-88.801 234.117 1089.45
-88.7516 234.198 1089.48
-88.7107 234.263 1089.49
-87.6561 237.294 1090.26
-87.1812 238.164 1090.5
-86.3338 239.662 1090.92
-85.8302 240.509 1091.16
-85.3368 241.33 1091.4
-84.8585 242.126 1091.63
-84.8497 242.139 1091.63
-84.8419 242.15 1091.63
-84.8352 242.161 1091.64
-84.8293 242.17 1091.64
-138.085 274.631 1091.47
-138.151 274.61 1091.46
-138.226 274.584 1091.44
-138.312 274.552 1091.43
-139.67 274.055 1091.15
-141.05 273.522 1090.86
-142.454 272.947 1090.56
-146.468 271.048 1089.64
-146.48 271.042 1089.64
-146.496 271.033 1089.64
-147.897 270.236 1089.29
-150.081 268.843 1088.72
-151.303 267.97 1088.38
-152.513 267.031 1088.03
-153.799 265.928 1087.63
-96.5025 220.353 1085.6
-96.5069 220.356 1085.6
-95.0023 222.684 1086.28
-94.5191 223.488 1086.51
-94.0686 224.267 1086.73
-93.6468 225.025 1086.94
-93.2497 225.77 1087.15
-92.5357 227.214 1087.54
-92.5138 227.253 1087.55
-92.4953 227.285 1087.56
-92.4796 227.311 1087.56
-90.4675 230.725 1088.53
-89.8931 231.825 1088.84
-89.3223 232.945 1089.14
-88.7593 234.073 1089.45
-88.7265 234.126 1089.46
-88.6976 234.172 1089.48
-88.6721 234.212 1089.49
-146.474 271.044 1089.64
-146.48 271.042 1089.64
-146.486 271.038 1089.64
-147.736 270.326 1089.33
-148.975 269.56 1089.01
-150.198 268.737 1088.68
-151.397 267.854 1088.34
-154.534 265.196 1087.38
-154.648 265.092 1087.35
-154.791 264.943 1087.3
-155.79 263.806 1086.93
-156.69 262.624 1086.57
-157.494 261.398 1086.21
-158.656 259.175 1085.6
-103.079 214.626 1083.56
-100.922 216.372 1084.2
-99.346 217.658 1084.67
-98.3145 218.556 1084.99
-97.4436 219.368 1085.27
-96.6984 220.132 1085.53
-96.6748 220.154 1085.54
-96.6579 220.171 1085.54
-96.6453 220.185 1085.55
-94.5867 223.663 1086.53
-94.1362 224.341 1086.73
-93.7167 225.027 1086.93
-93.3169 225.73 1087.13
-92.926 226.462 1087.33
-92.5338 227.232 1087.54
-92.5239 227.248 1087.55
-92.5145 227.263 1087.55
-92.5057 227.278 1087.55
-92.4973 227.291 1087.56
-150.331 268.584 1088.63
-154.63 265.083 1087.35
-154.702 265.005 1087.32
-154.78 264.907 1087.29
-155.778 263.693 1086.91
-156.676 262.391 1086.52
-158.769 258.887 1085.53
-158.788 258.833 1085.51
-158.81 258.753 1085.49
-159.546 255.994 1084.82
-159.811 254.433 1084.47
-160.013 252.777 1084.1
-160.209 250.311 1083.56
-111.906 210.353 1081.53
-109.715 211.194 1081.99
-107.936 211.642 1082.31
-106.719 212.158 1082.58
-104.713 213.375 1083.09
-103.348 214.399 1083.48
-103.301 214.427 1083.49
-103.269 214.449 1083.5
-103.244 214.467 1083.51
-99.1242 217.518 1084.67
-98.2107 218.401 1084.97
-97.4022 219.264 1085.26
-96.6907 220.107 1085.52
-96.6764 220.122 1085.53
-96.6644 220.135 1085.53
-96.6543 220.147 1085.54
-96.6456 220.157 1085.54
-158.779 258.87 1085.52
-158.789 258.845 1085.51
-158.8 258.816 1085.51
-158.81 258.779 1085.5
-159.292 257.239 1085.12
-159.662 255.668 1084.74
-159.918 254.08 1084.38
-160.252 249.485 1083.38
-160.249 249.368 1083.36
-160.238 249.215 1083.33
-160.171 247.485 1082.98
-160.005 245.847 1082.66
-159.772 244.288 1082.37
-159.512 242.79 1082.09
-159.269 241.337 1081.82
-159.477 238.686 1081.24
-159.444 238.44 1081.2
-159.384 236.732 1080.85
-159.133 235.121 1080.55
-158.763 233.582 1080.28
-158.314 232.087 1080.03
-157.807 230.609 1079.78
-157.119 228.807 1079.5
-132.603 213.494 1079.5
-132.626 213.508 1079.5
-129.17 212.865 1079.81
-127.542 212.485 1079.95
-125.486 211.981 1080.11
-123.623 212.591 1080.48
-121.839 212.429 1080.67
-119.959 212.215 1080.87
-118.131 212.031 1081.07
-115.952 210.141 1080.96
-114.233 210.134 1081.18
-112.532 210.25 1081.43
-112.432 210.227 1081.44
-112.356 210.213 1081.44
-107.738 211.416 1082.29
-106.736 211.877 1082.52
-105.673 212.555 1082.79
-104.526 213.413 1083.12
-103.32 214.414 1083.48
-103.3 214.43 1083.49
-103.284 214.445 1083.5
-160.263 249.452 1083.38
-160.26 249.387 1083.36
-160.254 249.31 1083.35
-160.243 249.219 1083.33
-160.193 247.421 1082.96
-160.046 245.63 1082.61
-159.634 242.742 1082.06
-159.44 238.499 1081.21
-159.434 238.356 1081.18
-159.422 236.545 1080.81
-159.226 234.838 1080.48
-158.593 232.22 1080.02
-156.744 227.847 1079.35
-156.713 227.753 1079.33
-156.667 227.639 1079.32
-156.008 226.154 1079.09
-155.263 224.668 1078.88
-154.439 223.201 1078.68
-153.54 221.77 1078.5
-153.046 221.046 1078.42
-151.956 219.605 1078.26
-150.796 218.284 1078.14
-149.567 217.107 1078.05
-148.271 216.098 1078.01
-146.499 215.087 1078.03
-144.987 214.522 1078.11
-143.352 214.171 1078.25
-141.594 214.001 1078.44
-140.753 213.939 1078.54
-139.097 213.872 1078.74
-137.44 213.786 1078.93
-135.786 213.662 1079.12
-134.129 213.543 1079.31
-133.993 213.529 1079.33
-133.876 213.516 1079.34
-128.768 211.25 1079.53
-127.135 210.886 1079.67
-125.486 210.564 1079.81
-124.816 210.438 1079.88
-123.255 210.012 1079.99
-120.617 209.378 1080.2
-118.914 209.298 1080.4
-117.237 209.325 1080.63
-115.605 209.471 1080.87
-114.02 209.75 1081.13
-112.484 210.157 1081.41
-112.445 210.163 1081.42
-112.412 210.171 1081.43
-107.702 211.325 1082.28
-159.942 243.96 1082.28
-159.475 238.672 1081.24
-159.001 233.455 1080.22
-156.707 227.753 1079.33
-156.689 227.694 1079.32
-156.666 227.627 1079.31
-156.635 227.552 1079.3
-155.923 225.94 1079.06
-154.399 223.049 1078.66
-153.463 221.574 1078.47
-152.441 220.17 1078.31
-151.333 218.859 1078.19
-150.138 217.665 1078.09
-148.856 216.609 1078.04
-147.486 215.712 1078.03
-146.028 214.998 1078.07
-144.48 214.493 1078.17
-142.84 214.2 1078.32
-141.115 214.094 1078.52
-139.343 214.069 1078.75
-137.585 213.99 1078.96
-135.87 213.811 1079.14
-134.167 213.618 1079.32
-134.096 213.613 1079.33
-134.031 213.61 1079.34
-133.972 213.606 1079.35
-128.269 211.296 1079.61
-149.862 217.429 1078.08
-148.571 216.382 1078.03
-146.079 214.992 1078.06
-144.548 214.499 1078.16
-66.7135 271.953 1046.3
-68.5768 277.109 1047
-68.5815 277.118 1047
-68.587 277.128 1047.01
-68.5936 277.14 1047.01
-68.6013 277.153 1047.01
-70.0486 279.263 1047.2
-70.7972 280.234 1047.27
-71.5243 281.146 1047.34
-72.2138 281.997 1047.4
-73.4112 283.402 1047.49
-74.0657 284.095 1047.52
-75.3088 285.244 1047.56
-76.7434 286.302 1047.55
-77.6278 286.866 1047.53
-78.5628 287.413 1047.5
-79.5413 287.948 1047.46
-81.4896 288.961 1047.36
-82.5686 289.513 1047.31
-83.6622 290.08 1047.26
-84.7651 290.662 1047.21
-85.8807 291.251 1047.16
-87.0131 291.834 1047.1
-88.1661 292.397 1047.04
-89.3444 292.926 1046.97
-89.3484 292.928 1046.97
-89.3523 292.929 1046.97
-94.0839 293.875 1046.46
-95.3842 294.139 1046.33
-96.6685 294.31 1046.17
-64.8599 263.57 1044.99
-64.8589 263.583 1044.99
-64.8583 263.599 1045
-64.8584 263.618 1045
-64.8594 263.642 1045
-64.9506 264.415 1045.14
-65.2008 265.931 1045.39
-65.5456 267.55 1045.64
-65.7864 268.558 1045.8
-66.076 269.651 1045.96
-66.4153 270.803 1046.13
-66.8006 271.972 1046.29
-67.2238 273.122 1046.45
-68.5796 277.093 1047
-68.5885 277.11 1047
-68.598 277.128 1047
-68.6089 277.147 1047.01
-69.3413 278.239 1047.11
-70.0897 279.254 1047.19
-70.8396 280.207 1047.26
-71.5796 281.111 1047.32
-72.3032 281.969 1047.38
-73.4962 283.32 1047.46
-74.683 284.5 1047.51
-75.4663 285.174 1047.52
-76.866 286.204 1047.52
-77.7973 286.799 1047.49
-79.4967 287.776 1047.43
-80.5466 288.343 1047.38
-81.6183 288.91 1047.34
-82.7049 289.486 1047.29
-84.7457 290.592 1047.2
-85.8762 291.209 1047.15
-87.0174 291.814 1047.1
-88.1728 292.392 1047.04
-89.346 292.926 1046.97
-89.354 292.93 1046.97
-92.7696 293.679 1046.62
-94.1276 294.044 1046.49
-95.4752 294.297 1046.34
-96.8077 294.448 1046.18
-99.0891 294.496 1045.85
-100.436 294.429 1045.65
-101.764 294.302 1045.43
-103.073 294.126 1045.21
-104.367 293.917 1044.98
-104.387 293.914 1044.98
-104.405 293.91 1044.97
-104.42 293.907 1044.97
-110.678 293.115 1043.91
-65.819 252.76 1042.81
-65.815 252.77 1042.82
-65.8113 252.781 1042.82
-65.8077 252.792 1042.82
-65.8042 252.805 1042.82
-65.628 253.57 1042.99
-65.4741 254.324 1043.16
-65.3364 255.073 1043.32
-65.2085 255.821 1043.48
-65.0053 257.12 1043.75
-64.8929 257.855 1043.91
-64.7877 258.609 1044.07
-64.6528 259.835 1044.32
-64.8509 263.551 1044.99
-64.8484 263.576 1044.99
-64.8473 263.607 1045
-64.8482 263.642 1045.01
-64.9226 264.408 1045.14
-65.0281 265.199 1045.27
-65.1691 266.037 1045.41
-65.4737 267.535 1045.65
-65.698 268.523 1045.8
-65.9556 269.614 1045.97
-66.2449 270.803 1046.15
-66.5731 272.06 1046.34
-66.9534 273.354 1046.53
-67.4041 274.657 1046.71
-68.3486 276.703 1046.96
-89.5251 292.998 1046.96
-91.8022 293.749 1046.77
-93.099 294.058 1046.64
-94.4286 294.295 1046.49
-96.1916 294.5 1046.28
-97.6397 294.575 1046.08
-99.0687 294.574 1045.87
-100.464 294.5 1045.66
-101.817 294.361 1045.43
-103.122 294.167 1045.21
-104.381 293.928 1044.98
-104.418 293.921 1044.97
-104.447 293.916 1044.97
-109.393 293.499 1044.17
-110.763 293.229 1043.92
-112.113 292.936 1043.67
-113.449 292.618 1043.42
-114.774 292.273 1043.16
-116.093 291.901 1042.9
-116.138 291.887 1042.89
-116.177 291.874 1042.88
-120.628 290.378 1041.95
-72.1106 242.442 1039.96
-68.4413 245.369 1041.04
-68.4168 245.408 1041.05
-68.3912 245.452 1041.06
-68.3644 245.502 1041.08
-67.8942 246.462 1041.33
-67.4665 247.428 1041.57
-67.0768 248.397 1041.81
-65.8245 252.727 1042.81
-65.8167 252.746 1042.81
-65.8085 252.769 1042.82
-65.8 252.798 1042.82
-65.6085 253.565 1043
-65.4343 254.352 1043.17
-65.1843 255.675 1043.46
-65.0563 256.467 1043.62
-64.9412 257.295 1043.8
-64.8053 258.457 1044.03
-64.7437 259.309 1044.2
-64.7093 260.189 1044.38
-64.7013 261.208 1044.57
-64.8267 263.17 1044.92
-64.8182 263.164 1044.92
-104.705 293.857 1044.92
-106.923 293.524 1044.54
-108.226 293.335 1044.31
-109.542 293.147 1044.08
-110.863 292.951 1043.86
-112.183 292.735 1043.62
-113.499 292.491 1043.39
-114.808 292.21 1043.14
-116.107 291.884 1042.89
-116.186 291.867 1042.88
-116.251 291.852 1042.87
-120.64 290.422 1041.96
-121.972 289.888 1041.67
-123.306 289.291 1041.36
-124.639 288.631 1041.04
-124.696 288.606 1041.03
-124.744 288.583 1041.02
-124.785 288.56 1041.01
-129.87 285.908 1039.77
-78.4671 234.952 1037.62
-75.3289 239.409 1038.92
-75.3062 239.427 1038.92
-75.2811 239.449 1038.93
-75.2529 239.475 1038.94
-74.1332 240.491 1039.3
-73.085 241.493 1039.64
-72.1116 242.477 1039.96
-71.215 243.441 1040.27
-68.5033 245.366 1041.03
-68.4553 245.446 1041.05
-68.3993 245.548 1041.08
-67.9553 246.551 1041.33
-67.5426 247.543 1041.58
-67.1635 248.511 1041.82
-66.8198 249.447 1042.04
-66.5124 250.347 1042.26
-65.8957 252.48 1042.75
-65.8905 252.476 1042.75
-116.83 291.675 1042.75
-118.894 291.01 1042.33
-120.318 290.49 1042.02
-121.743 289.921 1041.71
-123.169 289.302 1041.38
-124.592 288.631 1041.05
-124.716 288.572 1041.02
-124.806 288.525 1041
-128.498 286.665 1040.11
-129.799 285.823 1039.77
-131.051 284.92 1039.41
-132.244 283.953 1039.06
-132.31 283.902 1039.04
-132.364 283.856 1039.02
-132.407 283.815 1039.01
-135.672 280.281 1037.87
-85.4885 231.332 1035.92
-80.7171 232.915 1036.91
-80.6848 232.938 1036.92
-80.648 232.965 1036.93
-79.4955 233.866 1037.27
-78.3669 234.793 1037.61
-77.2679 235.732 1037.94
-75.3067 239.352 1038.91
-75.2663 239.377 1038.92
-75.2164 239.41 1038.93
-74.0075 240.204 1039.26
-72.9095 240.973 1039.56
-71.9191 241.719 1039.85
-71.4424 242.123 1039.99
-70.4822 242.951 1040.29
-68.8189 244.703 1040.86
-68.8036 244.691 1040.86
-125.381 288.228 1040.86
-127.295 287.257 1040.4
-128.594 286.515 1040.07
