-54.2993 -249.06 1102.54
-53.6865 -248.131 1102.49
-53.572 -247.925 1102.48
-53.0295 -247.044 1102.42
-52.9157 -246.838 1102.41
-52.4706 -246.055 1102.35
-52.1157 -245.37 1102.29
-52.0098 -245.158 1102.27
-50.9578 -241.606 1101.82
-50.9532 -241.596 1101.82
-50.949 -241.586 1101.81
-50.9452 -241.575 1101.81
-50.9417 -241.564 1101.81
-50.9385 -241.552 1101.81
-50.9354 -241.54 1101.81
-50.8147 -241.004 1101.73
-50.6985 -240.499 1101.66
-50.5854 -240.021 1101.59
-50.4771 -239.561 1101.53
-50.3755 -239.115 1101.46
-50.2824 -238.677 1101.4
-50.1993 -238.241 1101.33
-50.1276 -237.805 1101.26
-50.1091 -237.68 1101.24
-50.0506 -237.226 1101.17
-50.0064 -236.763 1101.09
-49.9765 -236.293 1101.01
-49.9599 -235.819 1100.92
-49.9524 -235.619 1100.88
-49.9533 -235.126 1100.79
-49.9667 -234.634 1100.69
-49.9917 -234.146 1100.6
-50.01 -233.86 1100.54
-50.0547 -233.354 1100.43
-50.1107 -232.854 1100.32
-50.4945 -230.673 1099.83
-50.4922 -230.671 1099.83
-50.49 -230.668 1099.83
-50.4879 -230.666 1099.83
-66.0582 -258.786 1101.96
-63.9358 -257.584 1102.17
-61.8404 -256.164 1102.33
-59.9811 -254.754 1102.45
-58.556 -253.584 1102.52
-57.5309 -252.664 1102.56
-56.7224 -251.859 1102.57
-55.9472 -251.032 1102.58
-55.1115 -250.1 1102.57
-54.2642 -249.086 1102.56
-53.4961 -248.068 1102.52
-52.8716 -247.111 1102.47
-52.3938 -246.241 1102.4
-52.0361 -245.449 1102.32
-51.7635 -244.715 1102.24
-51.5435 -244.023 1102.15
-51.0264 -241.912 1101.86
-51.0216 -241.907 1101.86
-51.0184 -241.903 1101.86
s
-97.3513 -200.524 1050.92
-99.0722 -201.5 1050.7
-100.727 -202.614 1050.52
-102.311 -203.867 1050.37
-103.819 -205.263 1050.27
-105.248 -206.806 1050.22
-106.591 -208.497 1050.21
-107.84 -210.313 1050.25
-108.98 -212.221 1050.33
-110 -214.188 1050.45
-110.883 -216.178 1050.6
-111.613 -218.157 1050.79
-112.187 -220.115 1051.01
-112.188 -220.12 1051.01
-112.189 -220.125 1051.01
-87.5001 -198.843 1052.91
-87.5685 -198.85 1052.9
-87.6509 -198.863 1052.88
-89.6892 -199.129 1052.46
-91.7006 -199.519 1052.06
-97.2603 -200.528 1050.95
-97.3211 -200.555 1050.94
-98.9707 -201.574 1050.74
-100.566 -202.68 1050.57
-102.101 -203.881 1050.42
-103.572 -205.187 1050.32
-104.07 -205.631 1050.28
-105.479 -207.14 1050.23
-106.781 -208.77 1050.22
-107.974 -210.518 1050.26
-109.058 -212.369 1050.34
-110.032 -214.29 1050.46
-110.888 -216.243 1050.61
-111.609 -218.19 1050.79
-112.186 -220.117 1051.01
-112.189 -220.126 1051.01
-112.191 -220.133 1051.01
-113.576 -225.976 1051.74
-113.744 -227.843 1052.04
-113.792 -229.825 1052.39
-113.725 -231.884 1052.77
-113.72 -232.015 1052.8
-113.714 -232.123 1052.82
-112.593 -240.326 1054.56
-75.0102 -199.488 1055.94
-78.8332 -197.419 1054.67
-79.0522 -197.4 1054.62
-81.0956 -197.273 1054.12
-83.1781 -197.249 1053.63
-87.4584 -198.73 1052.9
-87.6179 -198.724 1052.86
-89.6014 -198.683 1052.4
-91.5907 -198.829 1051.96
-93.5644 -199.177 1051.56
-96.7011 -200.218 1051.02
-112.208 -220.21 1051.02
-113.095 -224.128 1051.52
-113.424 -226.095 1051.8
-113.662 -228.062 1052.1
-113.768 -230.035 1052.43
-113.725 -231.991 1052.79
-113.711 -232.207 1052.84
-113.32 -236.344 1053.67
-112.736 -239.575 1054.39
-112.695 -239.917 1054.46
-111.384 -245.36 1055.75
-110.74 -247.309 1056.25
-109.939 -249.17 1056.78
-109.876 -249.314 1056.82
-109.821 -249.423 1056.85
-71.1906 -201.097 1057.12
-71.1964 -201.095 1057.11
-71.2039 -201.093 1057.11
-73.2421 -200.353 1056.5
-75.2807 -199.745 1055.92
-78.8147 -197.709 1054.73
-79.186 -197.734 1054.65
-81.323 -197.943 1054.19
-83.4561 -198.219 1053.74
-86.8366 -198.8 1053.06
-113.608 -233.316 1053.06
-113.319 -235.984 1053.61
-113.034 -237.884 1054.02
-112.693 -239.731 1054.43
-112.607 -240.263 1054.55
-112.126 -243.049 1055.16
-111.336 -245.045 1055.71
-110.698 -247.078 1056.22
-109.952 -249.073 1056.76
-109.851 -249.361 1056.83
-109.767 -249.542 1056.88
-107.667 -253.333 1058.06
-106.652 -254.831 1058.56
-106.541 -254.969 1058.61
-103.272 -258.158 1059.95
-60.9627 -206.253 1060.43
-65.2772 -202.252 1058.7
-65.3927 -202.184 1058.66
-65.5461 -202.1 1058.61
-67.3017 -201.093 1058.02
-71.1873 -201.083 1057.11
-71.2017 -201.073 1057.11
-73.1556 -199.701 1056.41
-75.1024 -198.559 1055.75
-77.1911 -197.609 1055.09
-109.336 -250.353 1057.13
-107.913 -252.858 1057.91
-106.768 -254.621 1058.5
-106.523 -254.965 1058.62
-106.36 -255.164 1058.69
-103.183 -258.279 1059.99
-101.751 -259.454 1060.54
-100.248 -260.522 1061.08
-100.211 -260.547 1061.09
-59.1335 -207.748 1061.12
-59.1557 -207.733 1061.12
-59.1845 -207.714 1061.11
-60.8742 -206.537 1060.5
-62.5052 -205.452 1059.92
-65.2765 -202.496 1058.75
-65.5176 -202.43 1058.68
-67.2802 -201.928 1058.18
-71.1459 -201.116 1057.13
-105.732 -256.01 1058.99
-104.364 -257.401 1059.56
-103.067 -258.502 1060.06
-101.69 -259.541 1060.57
-100.238 -260.531 1061.08
-100.18 -260.565 1061.1
-95.5851 -262.971 1062.61
-93.622 -263.772 1063.21
-93.6219 -263.772 1063.21
-93.6219 -263.772 1063.21
-53.702 -210.632 1062.91
-53.7831 -210.552 1062.87
-53.8875 -210.46 1062.83
-55.2438 -209.267 1062.3
-59.1065 -207.725 1061.13
-59.1406 -207.692 1061.11
-59.1947 -207.641 1061.09
-60.8875 -206.003 1060.4
-62.4345 -204.552 1059.78
-64.4488 -202.785 1058.99
-99.9321 -260.719 1061.19
-97.0513 -262.338 1062.15
-95.3524 -263.103 1062.69
-93.6219 -263.772 1063.21
-93.6219 -263.772 1063.21
-89.0563 -265.232 1064.54
-87.3256 -265.672 1065.02
-87.2316 -265.694 1065.04
-87.1585 -265.708 1065.06
-48.464 -216.49 1065.18
-48.4671 -216.48 1065.18
-48.4701 -216.472 1065.18
-48.4735 -216.464 1065.18
-48.478 -216.457 1065.18
-48.4843 -216.449 1065.17
-48.4932 -216.44 1065.17
-48.5062 -216.428 1065.16
-49.1839 -215.547 1064.85
-49.932 -214.752 1064.53
-50.8154 -213.956 1064.18
-53.708 -210.759 1062.93
-53.9296 -210.638 1062.86
-55.4739 -209.686 1062.32
-57.2563 -208.709 1061.73
-93.6216 -263.773 1063.21
-89.3625 -265.126 1064.45
-87.4211 -265.639 1064.99
-87.2194 -265.688 1065.05
-87.0908 -265.716 1065.08
-82.642 -266.525 1066.26
-80.9967 -266.722 1066.68
-79.3668 -266.872 1067.09
-79.2947 -266.88 1067.11
-79.234 -266.885 1067.12
-79.1818 -266.888 1067.13
-44.2505 -222.665 1067.28
-44.2523 -222.661 1067.28
-45.2723 -221.293 1066.79
-46.2505 -219.828 1066.3
-48.4349 -216.507 1065.19
-48.4524 -216.473 1065.18
-48.4775 -216.432 1065.17
-49.0792 -215.519 1064.87
-49.7609 -214.653 1064.55
-50.552 -213.772 1064.21
-51.4882 -212.802 1063.81
-52.9293 -211.31 1063.21
-86.4367 -265.865 1065.26
-84.0749 -266.331 1065.89
-82.4903 -266.562 1066.3
-80.9128 -266.741 1066.7
-79.3399 -266.877 1067.09
-79.2138 -266.886 1067.13
-79.1213 -266.89 1067.15
-74.7943 -267.046 1068.18
-73.1741 -267.122 1068.57
-71.4975 -267.196 1068.98
-71.3708 -267.2 1069.01
-71.2638 -267.205 1069.03
-66.9902 -267.32 1070.05
-41.0569 -228.997 1069.17
-41.0718 -228.976 1069.16
-41.0899 -228.952 1069.15
-41.1117 -228.923 1069.14
-41.1379 -228.887 1069.13
-41.1698 -228.841 1069.11
-41.8106 -228.143 1068.84
-43.0004 -226.676 1068.29
-44.2506 -222.672 1067.28
-44.2537 -222.668 1067.28
-44.2584 -222.66 1067.28
-45.465 -221.267 1066.74
-46.4872 -219.834 1066.25
-47.3002 -218.496 1065.82
-48.3184 -216.721 1065.26
-78.5403 -266.93 1067.29
-76.2911 -267.021 1067.83
-74.7607 -267.077 1068.2
-73.1846 -267.137 1068.57
-71.5243 -267.201 1068.97
-71.2943 -267.208 1069.03
-71.1239 -267.212 1069.07
-67.0637 -267.316 1070.03
-65.3478 -267.283 1070.42
-63.5833 -267.161 1070.81
-61.7761 -266.914 1071.19
-61.7088 -266.908 1071.2
-61.6519 -266.898 1071.21
-61.603 -266.884 1071.22
-38.165 -237.369 1071.35
-38.1648 -237.368 1071.35
-38.1646 -237.366 1071.35
-38.1645 -237.365 1071.35
-38.1644 -237.364 1071.35
-38.1644 -237.363 1071.35
-38.1648 -236.877 1071.26
-38.1672 -236.379 1071.17
-38.1709 -235.405 1070.99
-38.1839 -234.886 1070.9
-38.2071 -233.928 1070.72
-38.2632 -233.392 1070.61
-38.3521 -232.842 1070.49
-38.4788 -232.282 1070.36
-38.7691 -231.339 1070.12
-40.9805 -229 1069.18
-40.9893 -228.967 1069.18
-40.9969 -228.935 1069.17
-41.0032 -228.905 1069.16
-41.0091 -228.877 1069.16
-41.0156 -228.848 1069.15
-41.0243 -228.816 1069.14
-41.037 -228.779 1069.13
-41.0565 -228.731 1069.12
-41.504 -227.985 1068.88
-41.9385 -227.191 1068.63
-42.3819 -226.314 1068.37
-42.871 -225.308 1068.08
-44.2275 -222.692 1067.29
-70.0241 -267.25 1069.33
-68.1684 -267.293 1069.77
-66.5624 -267.298 1070.14
-64.9645 -267.253 1070.51
-63.3594 -267.131 1070.86
-61.713 -266.9 1071.2
-61.6096 -266.879 1071.22
-58.0774 -265.823 1071.85
-56.429 -265.108 1072.11
-54.7737 -264.237 1072.34
-53.1201 -263.258 1072.54
-51.4715 -262.21 1072.74
-49.8376 -261.124 1072.92
-48.2852 -260.03 1073.09
-46.9057 -258.976 1073.22
-45.7863 -258.019 1073.3
-44.9117 -257.164 1073.35
-44.1856 -256.361 1073.38
-43.5105 -255.556 1073.39
-42.8223 -254.718 1073.4
-42.8221 -254.717 1073.4
-41.5266 -253.031 1073.4
-41.5263 -253.03 1073.4
-41.5259 -253.03 1073.4
-41.0007 -252.243 1073.38
-40.5845 -251.518 1073.34
-40.5802 -251.509 1073.34
-40.2507 -250.831 1073.3
-39.9895 -250.196 1073.24
-39.7763 -249.598 1073.18
-39.5924 -249.031 1073.12
-39.4227 -248.491 1073.07
-39.4133 -248.463 1073.06
-39.2556 -247.948 1073.01
-39.2475 -247.919 1073
-39.1003 -247.422 1072.95
-39.0901 -247.387 1072.94
-38.9488 -246.897 1072.89
-38.8135 -246.414 1072.83
-38.6822 -245.931 1072.78
-38.5547 -245.446 1072.72
-38.4318 -244.956 1072.66
-38.2479 -244.107 1072.55
-38.1429 -243.616 1072.48
-37.9971 -242.8 1072.37
-37.8718 -242.01 1072.26
-37.7981 -241.52 1072.19
-38.1639 -237.376 1071.35
-38.1638 -237.374 1071.35
-38.1638 -237.372 1071.35
-38.164 -237.37 1071.35
-38.1644 -237.368 1071.35
-38.165 -237.366 1071.35
-38.1657 -237.363 1071.35
-38.1665 -237.361 1071.35
-38.1905 -236.867 1071.25
-38.2245 -236.374 1071.16
-38.2647 -235.887 1071.06
-38.3051 -235.411 1070.96
-38.3384 -234.949 1070.87
-38.3454 -234.864 1070.86
-38.3622 -234.406 1070.77
-38.3744 -233.963 1070.69
-38.3672 -233.851 1070.67
-38.3826 -233.41 1070.59
-38.4128 -232.979 1070.5
-38.4211 -232.833 1070.47
-38.4912 -232.396 1070.38
-38.5409 -232.213 1070.33
-38.6868 -231.757 1070.22
-38.8966 -231.303 1070.09
-39.1845 -230.848 1069.94
-39.5623 -230.39 1069.77
-40.6414 -229.369 1069.33
-40.6412 -229.369 1069.33
-60.8944 -266.725 1071.36
-58.155 -265.941 1071.86
-56.4044 -265.22 1072.13
-54.6943 -264.344 1072.37
-53.0094 -263.339 1072.58
-51.3403 -262.241 1072.77
-49.6969 -261.096 1072.95
-48.1607 -259.97 1073.1
-46.8216 -258.922 1073.23
-44.9133 -257.171 1073.35
-44.1874 -256.366 1073.38
-44.1824 -256.359 1073.38
-43.5114 -255.557 1073.39
-43.5106 -255.555 1073.39
-42.8228 -254.718 1073.4
-42.8226 -254.717 1073.4
-42.8223 -254.717 1073.4
-41.5281 -253.031 1073.4
-41.527 -253.03 1073.4
-41.0053 -252.245 1073.38
-40.9995 -252.239 1073.38
-40.5802 -251.511 1073.34
-40.249 -250.839 1073.3
-39.9857 -250.215 1073.25
-39.7713 -249.628 1073.19
-39.7528 -249.573 1073.18
-39.5686 -249.001 1073.12
-39.401 -248.449 1073.06
-39.2463 -247.916 1073
-39.1031 -247.399 1072.94
-38.9698 -246.899 1072.88
-38.8462 -246.414 1072.82
-38.732 -245.943 1072.77
-38.6273 -245.486 1072.71
-38.5321 -245.041 1072.65
-38.4462 -244.609 1072.59
-38.4127 -244.448 1072.57
-38.3363 -244.024 1072.51
-38.2692 -243.614 1072.45
-38.2105 -243.216 1072.4
-38.1597 -242.829 1072.34
-38.116 -242.452 1072.28
-38.0973 -242.258 1072.25
-38.0641 -241.879 1072.19
-38.0376 -241.505 1072.13
-38.0176 -241.132 1072.06
-38.0041 -240.757 1072
-37.9981 -240.377 1071.93
-38.0006 -239.988 1071.86
-38.0125 -239.585 1071.79
-38.1645 -237.421 1071.36
-38.1644 -237.42 1071.36
-38.1644 -237.42 1071.36
-38.1644 -237.42 1071.36
-41.9742 -253.633 1073.4
s
-82.3344 -206.368 1022.05
-84.1951 -207.377 1021.74
-85.9489 -208.437 1021.47
-87.5949 -209.56 1021.23
-89.1337 -210.76 1021.04
-90.5678 -212.053 1020.89
-91.9007 -213.456 1020.79
-93.1385 -214.977 1020.73
-94.2881 -216.608 1020.71
-96.2046 -219.887 1020.77
-97.0749 -221.651 1020.85
-97.8376 -223.421 1020.95
-98.4813 -225.196 1021.09
-99.0017 -226.996 1021.26
-99.3994 -228.844 1021.47
-99.6841 -230.764 1021.73
-99.8755 -232.771 1022.02
-100.007 -236.143 1022.56
-72.116 -203.661 1024.23
-74.2614 -203.808 1023.7
-76.3448 -204.134 1023.22
-78.3655 -204.634 1022.78
-78.547 -204.683 1022.74
-82.5084 -206.728 1022.07
-84.3044 -207.579 1021.75
-86.0072 -208.527 1021.47
-87.6158 -209.578 1021.23
-89.1297 -210.737 1021.04
-90.5494 -212.012 1020.89
-91.8756 -213.41 1020.78
-93.1101 -214.931 1020.73
-94.2552 -216.558 1020.71
-95.3115 -218.268 1020.73
-96.2759 -220.039 1020.78
-97.1406 -221.854 1020.86
-97.8958 -223.695 1020.98
-98.9862 -227.049 1021.27
-99.4057 -228.881 1021.48
-99.737 -230.745 1021.71
-100.001 -232.63 1021.96
-100.045 -236.832 1022.67
-100.053 -236.932 1022.68
-100.059 -238.875 1023.01
-99.8538 -240.801 1023.39
-99.4599 -242.77 1023.83
-99.2424 -244.749 1024.23
-98.6714 -247.89 1024.91
-98.4885 -248.199 1025.01
-97.3338 -250.173 1025.64
-95.8806 -253.694 1026.62
-62.3635 -202.892 1026.62
-65.311 -202.981 1025.87
-67.5144 -203.178 1025.34
-69.8429 -203.506 1024.79
-70.0138 -203.534 1024.75
-70.1289 -203.557 1024.73
-74.4215 -203.356 1023.58
-76.392 -203.882 1023.16
-78.366 -204.551 1022.77
-78.4498 -204.578 1022.75
-78.52 -204.606 1022.74
-100.031 -236.872 1022.68
-100.032 -236.925 1022.69
-100.028 -236.986 1022.7
-99.9566 -239.05 1023.07
-99.7342 -241.023 1023.46
-99.4489 -242.953 1023.87
-98.7608 -247.579 1024.83
-98.6213 -247.995 1024.94
-97.6169 -249.71 1025.49
-95.8107 -253.887 1026.67
-95.7949 -253.924 1026.68
-95.7681 -253.978 1026.7
-94.9026 -255.797 1027.23
-93.8836 -257.551 1027.79
-92.1303 -259.97 1028.66
-56.3193 -205.692 1028.66
-59.6015 -204.041 1027.53
-61.3639 -203.275 1026.94
-61.5816 -203.188 1026.87
-65.5534 -203.781 1025.95
-67.6973 -203.64 1025.37
-69.9042 -203.631 1024.8
-69.9946 -203.629 1024.77
-70.0667 -203.631 1024.75
-98.6948 -247.773 1024.88
-95.7882 -253.913 1026.68
-95.7771 -253.943 1026.69
-94.9941 -255.575 1027.17
-94.0657 -257.21 1027.69
-91.662 -260.529 1028.88
-91.5164 -260.69 1028.94
-90.1804 -262.018 1029.51
-88.6243 -263.315 1030.14
-49.3796 -207.076 1030.69
-52.5759 -206.234 1029.72
-54.5314 -205.893 1029.16
-56.3022 -205.693 1028.66
-56.3059 -205.693 1028.66
-61.2569 -203.052 1026.93
-61.4051 -203.026 1026.89
-61.5184 -203.012 1026.86
-91.5929 -260.6 1028.91
-91.5165 -260.685 1028.94
-90.2508 -261.969 1029.49
-86.9471 -264.504 1030.77
-86.8882 -264.549 1030.8
-85.3187 -265.571 1031.38
-84.6093 -265.988 1031.63
-81.4695 -267.616 1032.72
-44.6733 -211.844 1032.72
-48.1057 -208.317 1031.23
-48.4556 -207.978 1031.08
-48.66 -207.792 1031
-52.9964 -207.001 1029.74
-54.6518 -206.302 1029.2
-56.3027 -205.698 1028.67
-56.3047 -205.697 1028.66
-86.8987 -264.541 1030.79
-86.8577 -264.567 1030.81
-85.0966 -265.666 1031.45
-83.2985 -266.633 1032.08
-80.6386 -267.959 1032.99
-80.3609 -268.067 1033.08
-78.2891 -268.817 1033.75
-75.0508 -269.848 1034.76
-38.6967 -214.747 1034.76
-40.8303 -213.544 1034
-42.6974 -212.649 1033.37
-44.5606 -211.886 1032.76
-44.586 -211.875 1032.75
-48.0566 -207.834 1031.16
-48.2408 -207.72 1031.09
-48.3818 -207.64 1031.04
-52.8265 -206.701 1029.73
-80.7006 -267.946 1032.97
-80.6087 -267.987 1033.01
-80.4904 -268.036 1033.04
-78.6912 -268.723 1033.63
-74.4928 -270.027 1034.93
-74.3637 -270.069 1034.98
-74.1534 -270.126 1035.04
-72.1456 -270.645 1035.65
-70.164 -271.046 1036.23
-68.1565 -271.36 1036.8
-34.7516 -220.728 1036.8
-36.3026 -218.196 1035.97
-37.5018 -216.389 1035.35
-37.7601 -215.99 1035.21
-37.9283 -215.741 1035.13
-42.7635 -213.119 1033.43
-43.0059 -212.917 1033.33
-44.5767 -211.902 1032.75
-44.5879 -211.895 1032.75
-74.4109 -270.046 1034.96
-74.3265 -270.071 1034.99
-74.2162 -270.099 1035.02
-72.3207 -270.587 1035.59
-70.4254 -270.996 1036.15
-66.8116 -271.548 1037.18
-66.4684 -271.596 1037.28
-64.7636 -271.807 1037.75
-63.0825 -271.973 1038.22
-60.7858 -272.09 1038.83
-29.7983 -225.123 1038.83
-29.8016 -225.128 1038.83
-31.3201 -223.411 1038.14
-31.7795 -222.941 1037.95
-32.8088 -222.112 1037.54
-34.081 -221.19 1037.05
-34.2076 -221.091 1037
-34.3029 -221.022 1036.97
-37.2531 -216.039 1035.35
-37.4419 -215.847 1035.27
-37.5926 -215.701 1035.21
-41.258 -213.825 1033.94
-72.2943 -270.581 1035.6
-66.8064 -271.541 1037.18
-66.662 -271.565 1037.22
-66.4837 -271.588 1037.27
-64.8274 -271.788 1037.73
-63.2315 -271.953 1038.17
-59.8464 -272.116 1039.08
-59.6472 -272.12 1039.13
-57.9677 -272.143 1039.57
-56.2941 -272.151 1040
-54.6517 -272.083 1040.41
-52.7369 -271.793 1040.86
-26.7317 -232.377 1040.86
-26.7327 -232.379 1040.86
-26.7337 -232.38 1040.86
-26.7348 -232.382 1040.86
-26.7363 -232.384 1040.86
-26.7383 -232.387 1040.86
-27.2927 -230.59 1040.41
-27.4324 -230.238 1040.31
-27.5943 -229.858 1040.21
-27.7802 -229.445 1040.09
-27.9907 -228.995 1039.96
-28.225 -228.508 1039.81
-28.4808 -227.981 1039.66
-28.7543 -227.416 1039.49
-29.0401 -226.817 1039.31
-29.332 -226.187 1039.13
-29.6227 -225.532 1038.95
-29.648 -225.491 1038.93
-29.6703 -225.456 1038.92
-33.0778 -222.549 1037.54
-34.1925 -221.333 1037.05
-34.2504 -221.266 1037.02
-34.3014 -221.206 1037
-34.3461 -221.156 1036.98
-59.8748 -272.129 1039.07
-59.7821 -272.136 1039.1
-59.6686 -272.141 1039.13
-57.9905 -272.187 1039.57
-56.2569 -272.197 1040.02
-55.6867 -272.165 1040.16
-51.4794 -271.494 1041.13
-51.2322 -271.446 1041.19
-49.3951 -270.817 1041.56
-47.6203 -270.059 1041.89
-45.9017 -269.223 1042.19
-44.1161 -268.302 1042.49
-25.7288 -241.938 1042.75
-25.7333 -241.945 1042.75
-25.7372 -241.951 1042.75
-25.7404 -241.956 1042.75
-25.7431 -241.96 1042.75
-25.6647 -239.66 1042.38
-25.6779 -239.175 1042.29
-25.7014 -238.675 1042.2
-25.7062 -238.379 1042.15
-25.7442 -237.882 1042.05
-25.7937 -237.374 1041.95
-25.8055 -237.135 1041.91
-25.8677 -236.637 1041.81
-25.9377 -236.14 1041.71
-25.9547 -235.953 1041.67
-26.0326 -235.479 1041.57
-26.1155 -235.016 1041.47
-26.2022 -234.568 1041.37
-26.2916 -234.139 1041.27
-26.461 -233.413 1041.11
-26.5544 -233.036 1041.02
-26.6458 -232.689 1040.94
-26.6509 -232.669 1040.93
-26.6563 -232.652 1040.93
-26.6617 -232.636 1040.92
-26.6673 -232.622 1040.92
-26.673 -232.609 1040.91
-27.9072 -228.917 1039.97
-28.1481 -228.376 1039.81
-28.4025 -227.829 1039.65
-28.9102 -226.789 1039.34
-29.2288 -226.171 1039.16
-29.572 -225.529 1038.96
-29.5829 -225.506 1038.95
-29.5926 -225.486 1038.95
-29.6009 -225.467 1038.94
-29.6083 -225.45 1038.93
-29.6152 -225.433 1038.93
-56.0478 -272.139 1040.06
-51.4127 -271.453 1041.14
-51.3084 -271.434 1041.17
-51.1815 -271.393 1041.19
-49.2546 -270.647 1041.56
-47.3596 -269.773 1041.91
-45.5839 -268.925 1042.22
-42.1298 -267.262 1042.83
-42.0686 -267.231 1042.84
-40.1 -266.187 1043.17
-38.387 -265.145 1043.44
-36.9778 -264.083 1043.62
-35.8324 -263.039 1043.74
-34.9171 -262.079 1043.81
-34.1866 -261.238 1043.86
-33.3287 -260.247 1043.91
-32.8097 -259.656 1043.94
-32.3377 -259.11 1043.97
-31.7394 -258.403 1044
-31.3522 -257.875 1044.01
-30.9923 -257.343 1044.02
-30.6548 -256.805 1044.01
-30.3342 -256.258 1044
-30.0253 -255.702 1043.99
-29.7234 -255.144 1043.97
-29.4236 -254.59 1043.95
-29.1252 -254.047 1043.94
-28.8318 -253.517 1043.92
-28.5472 -253.002 1043.91
-28.2757 -252.503 1043.89
-28.0214 -252.017 1043.88
-27.7885 -251.537 1043.85
-27.5814 -251.059 1043.83
-27.4008 -250.578 1043.79
-27.244 -250.091 1043.75
-27.1079 -249.597 1043.7
-26.9896 -249.096 1043.64
-26.8861 -248.592 1043.59
-26.756 -247.789 1043.48
-26.6606 -247.301 1043.42
-26.5623 -246.83 1043.37
-26.4621 -246.377 1043.32
-26.2816 -245.633 1043.24
-26.1799 -245.208 1043.19
-26.0843 -244.795 1043.15
-25.9967 -244.388 1043.1
-25.9197 -243.982 1043.05
-25.8556 -243.575 1043
-25.8059 -243.16 1042.94
-25.7694 -242.738 1042.88
-25.7435 -242.308 1042.81
-25.7447 -242.298 1042.81
-25.7464 -242.289 1042.81
-25.7483 -242.281 1042.8
-25.7505 -242.273 1042.8
-25.7528 -242.266 1042.8
-25.7549 -242.259 1042.8
-25.757 -242.252 1042.8
-25.7588 -242.246 1042.79
-25.7602 -242.24 1042.79
-25.8948 -237.857 1042.01
-25.9645 -237.273 1041.89
-26.0306 -236.701 1041.78
-26.0927 -236.149 1041.67
-26.0868 -236.049 1041.65
-26.146 -235.534 1041.55
-26.2072 -235.047 1041.45
-26.3446 -234.207 1041.27
-26.4149 -233.792 1041.18
-26.4893 -233.402 1041.1
-26.5675 -233.037 1041.02
-26.6492 -232.694 1040.94
-26.6495 -232.687 1040.93
-26.6502 -232.68 1040.93
-26.6515 -232.675 1040.93
-26.6534 -232.67 1040.93
-26.6559 -232.667 1040.93
-26.659 -232.663 1040.93
-26.6626 -232.66 1040.93
-26.6667 -232.657 1040.92
-26.6712 -232.654 1040.92
-42.1296 -267.259 1042.83
-42.1003 -267.243 1042.83
-42.0657 -267.223 1042.84
-40.0366 -266.12 1043.18
-38.225 -265.026 1043.46
-36.7596 -263.947 1043.65
-35.0624 -262.208 1043.79
-34.3236 -261.304 1043.83
-33.3067 -260.084 1043.89
-32.4377 -259.121 1043.95
-31.7078 -258.254 1043.99
-31.0969 -257.361 1043.99
-30.7679 -256.824 1043.99
-30.4649 -256.305 1043.98
-30.1765 -255.795 1043.96
-30.1091 -255.681 1043.96
-29.8282 -255.161 1043.95
-29.5358 -254.629 1043.93
-29.2327 -254.093 1043.92
-28.926 -253.557 1043.91
-28.6233 -253.025 1043.89
-28.3321 -252.502 1043.88
-28.0599 -251.99 1043.86
-27.8143 -251.494 1043.84
-27.6027 -251.008 1043.81
-27.3244 -250.143 1043.74
-27.1991 -249.664 1043.69
-27.0936 -249.188 1043.63
-27.0564 -249.108 1043.63
-26.9688 -248.634 1043.57
-26.8889 -248.16 1043.51
-26.8098 -247.689 1043.45
-26.7241 -247.224 1043.39
-26.5447 -246.406 1043.3
-26.4373 -245.967 1043.25
-26.2313 -245.184 1043.17
-26.0361 -244.402 1043.09
-25.9477 -243.982 1043.04
-25.8177 -243.169 1042.94
-25.7444 -242.313 1042.81
-25.7437 -242.306 1042.81
-25.7433 -242.3 1042.81
-25.743 -242.295 1042.81
-25.7429 -242.29 1042.81
-25.7429 -242.285 1042.81
-25.743 -242.281 1042.8
-25.7432 -242.277 1042.8
-25.7436 -242.273 1042.8
-25.744 -242.268 1042.8
s
-74.6128 -214.979 991.989
-74.6381 -214.997 991.985
-76.1233 -216.113 991.742
-77.5453 -217.318 991.531
-78.9023 -218.611 991.352
-80.1928 -219.993 991.207
-81.4133 -221.46 991.095
-82.5549 -223.003 991.018
-83.6078 -224.609 990.976
-84.5619 -226.261 990.97
-85.4058 -227.945 991
-86.1267 -229.644 991.068
-86.717 -231.349 991.174
-87.1914 -233.061 991.314
-87.572 -234.789 991.483
-87.8844 -236.542 991.675
-88.1574 -238.325 991.884
-88.1638 -238.395 991.893
-88.1668 -238.458 991.902
-88.3753 -243.431 992.641
-65.5709 -210.273 993.806
-65.6867 -210.306 993.778
-65.8248 -210.353 993.746
-67.6499 -211.032 993.336
-69.4264 -211.808 992.956
-74.5464 -214.944 992.003
-74.5859 -214.966 991.995
-74.6352 -214.999 991.986
-76.1174 -216.119 991.744
-77.5429 -217.327 991.533
-78.9056 -218.623 991.353
-80.2002 -220.012 991.208
-81.4211 -221.493 991.098
-82.5602 -223.057 991.025
-83.6104 -224.689 990.988
-84.5643 -226.37 990.987
-85.4133 -228.082 991.02
-86.1457 -229.805 991.088
-86.7516 -231.522 991.192
-87.2393 -233.232 991.327
-87.6241 -234.94 991.492
-87.9279 -236.652 991.68
-88.18 -238.378 991.886
-88.1933 -238.509 991.903
-88.4943 -243.058 992.547
-88.3845 -244.904 992.875
-88.1734 -246.693 993.222
-87.9213 -248.48 993.581
-87.7114 -250.358 993.942
-87.6976 -250.417 993.955
-86.051 -254.196 995.03
-85.5193 -255.95 995.463
-84.7413 -257.638 995.955
-84.7352 -257.651 995.959
-84.7296 -257.66 995.962
-57.5752 -209.324 995.928
-57.6004 -209.324 995.92
-57.6322 -209.325 995.912
-59.4909 -209.435 995.401
-61.3189 -209.65 994.915
-65.4387 -210.228 993.836
-65.6325 -210.285 993.79
-65.9074 -210.383 993.728
-67.8076 -211.112 993.304
-69.6308 -211.946 992.919
-71.3785 -212.879 992.572
-74.2099 -214.712 992.061
-88.3391 -239.752 992.061
-88.5053 -241.901 992.359
-88.4815 -243.68 992.651
-88.3106 -245.421 992.979
-88.0509 -247.085 993.32
-87.8127 -248.709 993.648
-87.673 -250.416 993.962
-86.438 -253.818 994.859
-85.6381 -255.792 995.404
-84.7461 -257.629 995.952
-84.7311 -257.655 995.961
-84.721 -257.67 995.966
-82.0123 -261.984 997.429
-80.9298 -263.489 997.978
-80.8838 -263.548 998.001
-50.0225 -208.878 998.004
-50.0993 -208.87 997.981
-52.0657 -208.693 997.393
-57.546 -209.314 995.934
-57.5924 -209.311 995.921
-57.6691 -209.31 995.899
-59.7816 -209.339 995.302
-61.8678 -209.505 994.736
-64.3757 -209.901 994.086
-84.6809 -257.743 995.989
-82.9023 -260.651 996.962
-81.9406 -262.106 997.469
-80.9146 -263.513 997.986
-80.8454 -263.598 998.02
-77.7652 -266.633 999.383
-76.35 -267.811 999.974
-76.2843 -267.863 1000
-76.2307 -267.9 1000.02
-44.2662 -211.625 1000.08
-44.3142 -211.607 1000.07
-46.175 -211.056 999.448
-49.9548 -208.936 998.033
-50.0658 -208.929 998
-51.9284 -208.923 997.469
-53.8157 -208.993 996.944
-57.3593 -209.324 995.989
-80.5508 -263.95 998.16
-78.0284 -266.455 999.279
-76.4187 -267.765 999.948
-76.2693 -267.877 1000.01
-76.1761 -267.938 1000.04
-71.7392 -270.379 1001.7
-71.5928 -270.455 1001.75
-71.4801 -270.508 1001.79
-67.4522 -272.301 1003.23
-35.6847 -215.624 1003.17
-39.1785 -212.514 1001.67
-39.3576 -212.424 1001.61
-41.1279 -211.637 1000.98
-44.2313 -211.572 1000.08
-44.33 -211.514 1000.05
-46.2528 -210.5 999.337
-49.5191 -208.956 998.16
-75.8174 -268.21 1000.19
-73.4401 -269.612 1001.09
-71.7406 -270.443 1001.71
-71.4903 -270.556 1001.8
-71.3286 -270.619 1001.85
-67.4022 -272.395 1003.26
-65.6235 -272.981 1003.86
-65.4751 -273.026 1003.9
-65.3572 -273.058 1003.94
-33.7421 -217.053 1003.95
-33.8424 -216.973 1003.91
-33.9788 -216.875 1003.85
-35.618 -215.798 1003.21
-39.0046 -212.776 1001.76
-39.279 -212.694 1001.67
-39.7785 -212.568 1001.51
-43.9475 -211.73 1000.19
-70.662 -270.912 1002.09
-67.7976 -272.181 1003.11
-65.7644 -272.917 1003.8
-65.4391 -273.029 1003.92
-65.2393 -273.087 1003.98
-59.826 -274.521 1005.75
-59.6059 -274.567 1005.82
-59.4373 -274.596 1005.87
-55.2235 -275.293 1007.18
-27.7448 -219.524 1006.05
-27.8074 -219.474 1006.02
-27.8923 -219.408 1005.99
-29.2785 -218.225 1005.4
-33.6051 -216.995 1003.98
-33.7612 -216.833 1003.91
-34.0359 -216.568 1003.79
-35.7783 -214.986 1003.04
-38.0319 -213.085 1002.09
-64.3989 -273.333 1004.26
-61.7745 -274.08 1005.13
-59.8229 -274.501 1005.75
-59.4313 -274.58 1005.87
-59.1863 -274.621 1005.95
-55.1249 -275.272 1007.21
-53.3075 -275.457 1007.76
-51.5238 -275.589 1008.28
-51.5059 -275.59 1008.29
-23.5529 -224.521 1008.04
-23.6053 -224.472 1008.02
-23.6741 -224.41 1007.99
-23.7665 -224.331 1007.95
-24.9206 -223.345 1007.47
-27.7438 -219.675 1006.07
-27.8861 -219.609 1006.02
-28.1346 -219.501 1005.93
-30.0529 -218.577 1005.24
-32.9469 -217.593 1004.26
-58.086 -274.793 1006.29
-55.8056 -275.136 1006.99
-54.8041 -275.272 1007.3
-53.186 -275.451 1007.79
-51.5186 -275.588 1008.29
-51.4917 -275.589 1008.29
-47.2965 -275.483 1009.47
-45.4109 -275.241 1009.97
-45.2453 -275.215 1010.01
-45.1083 -275.183 1010.04
-40.706 -273.709 1011.06
-19.1526 -230.962 1010.33
-19.1533 -230.959 1010.33
-19.1542 -230.956 1010.33
-19.1553 -230.954 1010.33
-19.1566 -230.951 1010.33
-19.1581 -230.947 1010.33
-19.16 -230.944 1010.32
-19.1623 -230.941 1010.32
-19.1651 -230.936 1010.32
-19.4155 -230.421 1010.17
-19.6591 -229.898 1010.01
-20.0672 -228.91 1009.74
-20.5009 -227.913 1009.46
-20.8732 -227.275 1009.25
-23.5269 -224.564 1008.06
-23.637 -224.418 1008
-23.827 -224.171 1007.91
-25.6207 -222.215 1007.09
-27.2123 -220.079 1006.29
-51.3671 -275.597 1008.33
-48.4374 -275.651 1009.17
-46.8721 -275.504 1009.59
-45.2273 -275.234 1010.02
-44.986 -275.159 1010.07
-40.7932 -273.734 1011.04
-38.9184 -272.988 1011.45
-37.0986 -272.22 1011.85
-35.2735 -271.397 1012.23
-35.2668 -271.394 1012.23
-35.261 -271.391 1012.24
-30.6975 -269.209 1013.18
-16.5468 -243.797 1013.13
-17.0935 -239.154 1012.23
-17.0936 -239.152 1012.23
-17.0938 -239.149 1012.23
-17.0941 -239.147 1012.23
-17.0944 -239.145 1012.23
-17.0948 -239.143 1012.23
-17.0952 -239.141 1012.23
-17.0956 -239.138 1012.23
-17.096 -239.136 1012.23
-17.0963 -239.134 1012.23
-17.0966 -239.132 1012.23
-17.1078 -238.754 1012.16
-17.123 -238.378 1012.1
-17.1441 -238.003 1012.03
-17.1462 -237.985 1012.03
-17.1763 -237.606 1011.96
-17.217 -237.228 1011.89
-17.2705 -236.85 1011.81
-17.3393 -236.472 1011.73
-17.3519 -236.424 1011.72
-17.4436 -236.034 1011.63
-17.5568 -235.64 1011.53
-17.6912 -235.241 1011.43
-17.8441 -234.837 1011.32
-18.0125 -234.43 1011.21
-19.152 -230.978 1010.33
-19.1544 -230.973 1010.33
-19.157 -230.968 1010.33
-19.16 -230.963 1010.33
-19.1631 -230.957 1010.33
-19.1665 -230.95 1010.32
-19.17 -230.942 1010.32
-19.4262 -230.455 1010.17
-19.4407 -230.415 1010.16
-19.6693 -229.91 1010.01
-19.8639 -229.416 1009.88
-20.045 -228.925 1009.75
-20.2404 -228.424 1009.61
-20.4797 -227.904 1009.46
-20.7975 -227.348 1009.28
-21.2382 -226.74 1009.06
-21.863 -226.05 1008.77
-22.8915 -225.132 1008.33
-43.8551 -274.932 1010.36
-41.918 -274.324 1010.81
-40.2638 -273.658 1011.18
-38.6154 -272.932 1011.53
-36.9661 -272.184 1011.88
-35.2691 -271.395 1012.23
-35.2583 -271.39 1012.24
-32.2697 -270.03 1012.87
-30.5035 -269.117 1013.22
-28.7322 -267.901 1013.53
-27.1284 -266.526 1013.77
-25.0361 -264.387 1014.02
-24.4111 -263.676 1014.08
-23.9768 -263.137 1014.12
-23.1036 -262.101 1014.2
-23.0871 -262.065 1014.2
-22.4425 -261.357 1014.27
-21.7152 -260.543 1014.35
-20.9815 -259.657 1014.41
-20.9806 -259.656 1014.41
-20.9798 -259.655 1014.41
-19.1327 -256.187 1014.38
-19.1299 -256.18 1014.38
-19.1279 -256.173 1014.38
-19.1263 -256.166 1014.38
-18.9264 -255.387 1014.31
-18.7759 -254.665 1014.24
-18.6441 -254.01 1014.17
-18.509 -253.424 1014.12
-18.3699 -252.897 1014.07
-18.2297 -252.42 1014.04
-18.0917 -251.982 1014
-17.853 -251.231 1013.95
-17.7372 -250.85 1013.92
-17.6337 -250.467 1013.89
-17.5423 -250.077 1013.86
-17.403 -249.362 1013.78
-17.3342 -248.956 1013.73
-17.2695 -248.542 1013.69
-17.1577 -247.8 1013.6
-17.0937 -247.37 1013.55
-17.0275 -246.935 1013.5
-16.9597 -246.497 1013.45
-16.8926 -246.058 1013.39
-16.8287 -245.619 1013.34
-16.7703 -245.182 1013.29
-16.7196 -244.746 1013.23
-16.6786 -244.312 1013.18
-16.6493 -243.882 1013.11
-16.6591 -243.759 1013.09
-16.6469 -243.327 1013.03
-16.65 -242.896 1012.96
-17.0954 -239.166 1012.23
-17.0959 -239.163 1012.23
-17.0964 -239.16 1012.23
-17.0969 -239.157 1012.23
-17.0974 -239.154 1012.23
-17.0979 -239.15 1012.23
-17.0984 -239.146 1012.23
-17.0988 -239.141 1012.23
-17.099 -239.137 1012.23
-17.0991 -239.132 1012.22
-17.1152 -238.752 1012.16
-17.1318 -238.372 1012.09
-17.1499 -237.991 1012.03
-17.1711 -237.61 1011.96
-17.1972 -237.227 1011.89
-17.2303 -236.842 1011.82
-17.2728 -236.454 1011.75
-17.3276 -236.062 1011.67
-17.3976 -235.663 1011.58
-17.4848 -235.257 1011.49
-17.5911 -234.843 1011.4
-17.7195 -234.418 1011.29
-17.8705 -233.979 1011.18
-18.0435 -233.525 1011.06
-18.237 -233.053 1010.93
-19.1001 -231.061 1010.36
-19.1004 -231.062 1010.36
-19.1011 -231.063 1010.36
-35.1943 -271.359 1012.25
-31.2814 -269.458 1013.06
-29.3543 -268.26 1013.41
-28.6448 -267.783 1013.54
-27.1579 -266.509 1013.76
-25.9096 -265.278 1013.91
-25.011 -264.321 1014.02
-24.4113 -263.635 1014.08
-23.9827 -263.111 1014.12
-23.5915 -262.627 1014.15
-23.1026 -262.066 1014.2
-22.4651 -261.369 1014.27
-22.4329 -261.335 1014.27
-21.7161 -260.538 1014.35
-20.9821 -259.657 1014.41
-20.9808 -259.655 1014.41
-20.9796 -259.654 1014.41
-20.9786 -259.652 1014.41
-19.1382 -256.191 1014.38
-19.1332 -256.18 1014.38
-19.1289 -256.168 1014.38
-18.9321 -255.401 1014.31
-18.7841 -254.699 1014.24
-18.7718 -254.658 1014.24
-18.6417 -254.016 1014.17
-18.5126 -253.446 1014.12
-18.3828 -252.936 1014.07
-18.2536 -252.47 1014.04
-18.2315 -252.393 1014.03
-17.9983 -251.628 1013.97
-17.8744 -251.229 1013.95
-17.7557 -250.836 1013.92
-17.6446 -250.439 1013.88
-17.4863 -249.763 1013.82
-17.3951 -249.354 1013.78
-17.3081 -248.938 1013.74
-17.2255 -248.513 1013.69
-17.1068 -247.826 1013.62
-17.0329 -247.39 1013.57
-16.9625 -246.948 1013.52
-16.8967 -246.501 1013.46
-16.8376 -246.051 1013.41
-16.7874 -245.599 1013.35
-16.7477 -245.148 1013.29
-16.7198 -244.7 1013.23
-16.7044 -244.256 1013.16
-16.702 -243.818 1013.09
-16.7124 -243.387 1013.02
-16.7353 -242.964 1012.94
-16.7692 -242.55 1012.87
-16.8116 -242.144 1012.79
-16.8499 -241.845 1012.73
-16.8979 -241.439 1012.65
-17.0905 -239.275 1012.25
-17.0913 -239.277 1012.25
-17.092 -239.278 1012.25
-17.0926 -239.279 1012.25
-17.0928 -239.28 1012.25
-20.8935 -259.536 1014.42
-19.4426 -256.964 1014.42
-19.3292 -256.763 1014.42
s
-60.6804 -220.682 963.223
-62.0406 -221.681 962.951
-63.3485 -222.737 962.703
-64.6006 -223.852 962.482
-65.7935 -225.027 962.288
-66.924 -226.265 962.122
-67.9896 -227.569 961.987
-68.9871 -228.938 961.883
-69.913 -230.365 961.81
-70.7644 -231.838 961.767
-71.5378 -233.345 961.753
-72.2286 -234.877 961.769
-72.8297 -236.421 961.814
-73.3335 -237.971 961.891
-73.7346 -239.532 962.001
-74.0341 -241.109 962.145
-74.2437 -242.712 962.321
-74.3837 -244.354 962.524
-74.467 -246.036 962.751
-74.488 -247.752 963.002
-74.2 -251.045 963.587
-72.5891 -257.052 964.991
-72.0048 -258.941 965.456
-51.6434 -216.859 965.456
-54.5433 -217.639 964.672
-56.1414 -218.22 964.263
-57.7296 -218.915 963.874
-57.9243 -219.005 963.827
-58.0626 -219.077 963.795
-60.9379 -221.081 963.203
-62.2191 -221.97 962.938
-63.4647 -222.933 962.696
-64.6693 -223.973 962.478
-65.8278 -225.09 962.286
-66.935 -226.286 962.122
-67.9859 -227.563 961.988
-68.9757 -228.917 961.884
-69.8986 -230.335 961.81
-69.9536 -230.424 961.806
-70.7916 -231.877 961.764
-71.5592 -233.373 961.751
-72.2503 -234.897 961.765
-72.8587 -236.432 961.807
-73.3786 -237.97 961.877
-73.8047 -239.507 961.975
-74.133 -241.042 962.104
-74.1664 -241.265 962.127
-74.3898 -242.873 962.299
-74.5063 -244.496 962.507
-74.5251 -246.132 962.747
-74.1804 -251.163 963.611
-74.1777 -251.18 963.614
-74.173 -251.202 963.619
-73.7648 -252.793 963.985
-73.3739 -254.302 964.333
-71.6599 -259.576 965.659
-71.6005 -259.697 965.695
-71.5138 -259.844 965.744
-70.6299 -261.151 966.216
-69.7437 -262.381 966.676
-68.8707 -263.596 967.13
-67.8321 -264.991 967.662
-44.3451 -216.45 967.662
-46.1867 -216.411 967.084
-47.9191 -216.459 966.553
-49.6379 -216.59 966.039
-51.3349 -216.805 965.544
-51.3897 -216.813 965.528
-51.4277 -216.82 965.517
-56.1147 -218.293 964.282
-57.7247 -218.951 963.881
-57.8266 -218.99 963.855
-57.9105 -219.027 963.835
-57.9812 -219.063 963.818
-74.1777 -251.187 963.615
-74.1764 -251.198 963.617
-74.1743 -251.209 963.62
-73.7646 -252.904 964.002
-73.2775 -254.554 964.401
-71.6036 -259.634 965.685
-71.5646 -259.707 965.708
-71.5194 -259.795 965.735
-70.6326 -261.096 966.206
-69.7123 -262.406 966.689
-67.2767 -265.71 967.943
-67.1603 -265.872 968.003
-66.9638 -266.108 968.1
-65.805 -267.429 968.658
-63.4779 -269.502 969.693
-37.8955 -216.63 969.693
-41.2337 -216.388 968.619
-42.8652 -216.385 968.112
-43.1651 -216.393 968.02
-46.527 -216.147 966.939
-48.1777 -216.289 966.447
-49.7891 -216.505 965.979
-51.3595 -216.793 965.534
-51.387 -216.799 965.527
-67.1948 -265.792 967.98
-67.1297 -265.874 968.013
-67.0446 -265.969 968.054
-66.0531 -267.09 968.53
-63.2017 -269.702 969.809
-63.1499 -269.747 969.832
-63.0715 -269.809 969.865
-61.7793 -270.711 970.403
-60.5639 -271.521 970.902
-58.5385 -272.784 971.721
-32.4164 -218.797 971.721
-34.3073 -217.883 970.996
-35.972 -217.231 970.381
-37.7664 -216.664 969.738
-37.7953 -216.655 969.728
-37.8136 -216.65 969.721
-42.7344 -216.481 968.167
-42.9192 -216.462 968.107
-43.0652 -216.454 968.06
-43.1839 -216.452 968.023
-63.155 -269.742 969.829
-63.1175 -269.771 969.845
-63.069 -269.805 969.866
-61.7079 -270.704 970.424
-58.3637 -272.871 971.788
-58.3238 -272.89 971.804
-58.259 -272.918 971.828
-56.7613 -273.55 972.388
-54.6578 -274.312 973.156
-52.9929 -274.873 973.758
-26.532 -220.185 973.758
-29.2171 -219.374 972.802
-31.0318 -219.004 972.182
-31.3553 -218.946 972.073
-31.5605 -218.92 972.005
-35.838 -216.925 970.377
-37.7607 -216.644 969.737
-37.7781 -216.642 969.731
-37.7917 -216.64 969.727
-58.3359 -272.895 971.801
-58.3091 -272.911 971.811
-58.2732 -272.929 971.825
-55.7976 -274.076 972.767
-52.1759 -275.201 974.061
-51.9797 -275.267 974.132
-51.6645 -275.358 974.244
-49.9758 -275.865 974.845
-47.2248 -276.515 975.797
-22.1173 -224.624 975.797
-24.5408 -222.163 974.674
-25.914 -220.785 974.04
-26.0738 -220.641 973.969
-29.7167 -219.953 972.734
-31.2664 -219.255 972.147
-31.4232 -219.187 972.088
-31.5437 -219.141 972.044
-55.7373 -274.088 972.787
-52.0037 -275.247 974.122
-51.8798 -275.292 974.167
-51.7198 -275.343 974.224
-46.8858 -276.605 975.916
-46.8147 -276.624 975.941
-46.7059 -276.649 975.978
-45.2138 -277 976.495
-43.6988 -277.283 977.008
-41.2165 -277.574 977.823
-16.8867 -227.291 977.823
-19.0703 -226.085 976.963
-19.8284 -225.698 976.67
-21.3845 -224.951 976.074
-21.5465 -224.883 976.013
-24.3532 -221.661 974.657
-25.8278 -220.646 974.046
-25.9284 -220.589 974.006
-26.007 -220.549 973.976
-46.8076 -276.621 975.943
-46.7549 -276.635 975.961
-46.6863 -276.651 975.985
-45.1246 -277.029 976.527
-40.7955 -277.624 977.961
-40.6917 -277.636 977.995
-39.2467 -277.716 978.456
-37.7051 -277.683 978.93
-36.1093 -277.524 979.402
-34.5 -277.236 979.859
-13.4084 -233.646 979.859
-13.4089 -233.647 979.859
-14.7254 -231.168 979.077
-15.6336 -229.473 978.54
-16.3778 -228.144 978.109
-16.4794 -227.961 978.05
-19.9719 -226.445 976.737
-21.4492 -225.152 976.084
-21.5402 -225.067 976.043
-21.6111 -225.006 976.012
-40.7352 -277.624 977.98
-40.6816 -277.629 977.997
-40.6133 -277.632 978.019
-39.0039 -277.693 978.528
-37.3322 -277.633 979.039
-33.3071 -276.92 980.182
-33.0746 -276.871 980.247
-32.7429 -276.763 980.334
-31.0421 -276.122 980.766
-29.4371 -275.353 981.149
-27.8923 -274.532 981.505
-26.2459 -273.708 981.893
-9.67315 -239.456 981.893
-9.6763 -239.463 981.893
-9.68021 -239.471 981.893
-9.68491 -239.48 981.893
-9.69059 -239.492 981.893
-9.96648 -237.52 981.511
-10.1116 -237.224 981.421
-10.3022 -236.919 981.316
-10.5445 -236.59 981.191
-10.843 -236.227 981.044
-11.1993 -235.825 980.873
-11.612 -235.382 980.678
-12.0763 -234.905 980.462
-13.1084 -233.919 979.993
-13.1521 -233.874 979.973
-13.1878 -233.837 979.956
-13.2168 -233.808 979.943
-15.3316 -229.105 978.579
-16.2377 -228.017 978.134
-16.3047 -227.93 978.1
-16.3616 -227.858 978.071
-37.464 -277.563 978.987
-33.1595 -276.838 980.216
-33.0071 -276.794 980.256
-32.819 -276.728 980.305
-29.9332 -275.586 981.03
-28.4059 -274.89 981.4
-25.1509 -273.248 982.164
-24.9375 -273.15 982.216
-23.4494 -272.461 982.574
-21.9355 -271.603 982.916
-20.5095 -270.565 983.203
-19.2511 -269.435 983.424
-18.1824 -268.342 983.592
-17.2969 -267.392 983.724
-15.8162 -265.696 983.929
-15.8442 -265.754 983.929
-9.56953 -252.785 983.929
-9.57811 -252.803 983.929
-9.58394 -252.815 983.929
-9.58747 -252.823 983.929
-9.58892 -252.826 983.929
-9.52028 -250.65 983.623
-9.48806 -250.177 983.562
-9.4513 -249.69 983.5
-9.41758 -249.358 983.461
-9.37687 -248.873 983.401
-9.33885 -248.569 983.367
-9.30197 -248.097 983.307
-9.27228 -247.629 983.246
-9.25143 -247.169 983.184
-9.22078 -246.926 983.157
-9.21442 -246.495 983.094
-9.21872 -246.079 983.03
-9.23304 -245.68 982.965
-9.21962 -245.497 982.942
-9.24742 -245.131 982.878
-9.28254 -244.784 982.815
-9.32367 -244.453 982.753
-9.36933 -244.134 982.691
-9.4179 -243.822 982.629
-9.46754 -243.509 982.566
-9.51624 -243.189 982.503
-9.56154 -242.852 982.438
-9.60056 -242.491 982.372
-9.6312 -242.098 982.303
-9.65329 -241.678 982.233
-9.6673 -241.233 982.162
-9.67429 -240.77 982.09
-9.68186 -240.735 982.083
-9.68067 -240.274 982.014
-9.67626 -239.808 981.945
-9.67819 -239.799 981.943
-9.68 -239.791 981.941
-9.68169 -239.784 981.94
-9.68333 -239.777 981.938
-9.68498 -239.771 981.937
-9.6867 -239.765 981.935
-9.68852 -239.759 981.934
-9.69047 -239.754 981.932
-11.1055 -236.43 980.993
-11.385 -236.033 980.847
-11.7138 -235.603 980.68
-11.7606 -235.53 980.654
-12.1426 -235.07 980.466
-12.5951 -234.549 980.247
-12.6268 -234.513 980.232
-13.1526 -233.927 979.981
-13.1655 -233.914 979.975
-13.1792 -233.9 979.968
-13.1936 -233.886 979.962
-13.2084 -233.871 979.955
-29.696 -275.434 981.081
-25.0688 -273.178 982.179
-24.9613 -273.138 982.207
-24.83 -273.086 982.24
-23.268 -272.368 982.617
-21.7142 -271.485 982.967
-20.2301 -270.421 983.268
-18.1459 -268.615 983.644
-15.4987 -265.329 983.973
-15.4817 -265.314 983.976
-15.4658 -265.299 983.978
-15.4518 -265.283 983.98
-15.0109 -264.683 984.027
-14.6325 -264.105 984.058
-14.2922 -263.544 984.079
-13.9649 -262.997 984.099
-13.6392 -262.465 984.12
-13.3198 -261.953 984.142
-13.0135 -261.464 984.164
-12.7277 -260.999 984.183
-12.4697 -260.559 984.197
-12.2443 -260.14 984.204
-12.0468 -259.734 984.204
-11.871 -259.332 984.198
-11.71 -258.929 984.188
-11.5553 -258.521 984.174
-11.3977 -258.105 984.161
-11.056 -257.29 984.144
-10.8436 -256.829 984.141
-10.621 -256.355 984.139
-10.3977 -255.874 984.136
-10.1835 -255.39 984.13
-9.83992 -254.489 984.101
-9.71322 -254.025 984.071
-9.58574 -253.161 983.98
-9.58231 -253.147 983.979
-9.57973 -253.135 983.978
-9.57808 -253.124 983.977
-9.57728 -253.115 983.976
-9.57711 -253.106 983.975
-9.57732 -253.099 983.974
-9.57772 -253.093 983.973
-9.57811 -253.086 983.972
-9.57832 -253.081 983.971
-9.0797 -248.816 983.484
-9.06491 -248.664 983.466
-9.05638 -248.115 983.386
-9.0549 -247.578 983.306
-9.06244 -247.059 983.226
-9.03644 -246.917 983.212
-9.05765 -246.427 983.132
-9.09123 -245.963 983.052
-9.13644 -245.529 982.973
-9.19173 -245.13 982.896
-9.25547 -244.763 982.821
-9.38179 -244.18 982.694
-9.45025 -243.862 982.625
-9.51569 -243.546 982.557
-9.57467 -243.223 982.49
-9.62413 -242.883 982.423
-9.66137 -242.515 982.356
-9.68508 -242.113 982.289
-9.6966 -241.682 982.22
-9.69814 -241.229 982.152
-9.69266 -240.761 982.083
-9.68393 -240.286 982.014
-9.6759 -239.812 981.946
-9.67611 -239.806 981.945
-9.67631 -239.801 981.944
-9.67656 -239.796 981.943
-9.67697 -239.791 981.942
-9.6776 -239.786 981.941
-9.67851 -239.781 981.94
-9.67976 -239.776 981.939
-9.68137 -239.772 981.938
-9.68327 -239.768 981.937
-20.4105 -270.513 983.226
-19.1341 -269.51 983.472
-15.4869 -265.309 983.973
-15.4798 -265.301 983.974
-15.4731 -265.293 983.975
-15.4667 -265.286 983.976
-15.4604 -265.279 983.977
-15.4542 -265.273 983.978
-14.6448 -264.11 984.055
-14.295 -263.557 984.08
-13.9532 -263.016 984.105
-13.6109 -262.484 984.131
-12.9806 -261.498 984.179
-12.69 -261.014 984.197
-12.4349 -260.553 984.207
-12.0471 -259.729 984.203
-11.8841 -259.322 984.193
-11.7348 -258.922 984.179
-11.5894 -258.523 984.164
-11.4385 -258.119 984.15
-11.2727 -257.704 984.139
-11.2669 -257.685 984.138
-11.0773 -257.254 984.132
-10.866 -256.807 984.131
-10.643 -256.348 984.131
-10.4184 -255.882 984.131
-10.2022 -255.412 984.127
-10.0044 -254.943 984.118
-9.83615 -254.479 984.101
-9.63173 -253.595 984.031
-9.58326 -253.158 983.981
-9.58009 -253.151 983.981
-9.57737 -253.145 983.981
-9.5753 -253.138 983.98
-9.57409 -253.132 983.98
-9.57391 -253.126 983.979
-9.57461 -253.12 983.978
-9.57591 -253.115 983.977
-9.57757 -253.11 983.975
-9.57935 -253.105 983.974
-9.08005 -247.558 983.295
-9.14485 -247.012 983.193
s
-56.0053 -237.037 932.952
-56.6004 -238.192 932.913
-57.1345 -239.377 932.898
-57.6045 -240.589 932.909
-58.0117 -241.824 932.945
-58.3583 -243.076 933.003
-58.6656 -244.448 933.092
-45.3039 -226.749 935.121
-46.9491 -227.631 934.689
-48.084 -228.36 934.409
-49.1692 -229.149 934.153
-50.2049 -229.991 933.922
-51.1915 -230.881 933.713
-52.129 -231.814 933.528
-53.017 -232.784 933.364
-53.8539 -233.789 933.222
-54.6367 -234.826 933.104
-54.641 -234.833 933.103
-54.6446 -234.839 933.103
-56.7263 -239.037 932.988
-57.2539 -240.235 932.978
-57.7309 -241.439 932.986
-58.8499 -245.466 933.172
-58.8632 -245.515 933.175
-58.8749 -245.567 933.178
-59.0693 -246.779 933.282
-59.2236 -247.98 933.398
-59.3139 -249.179 933.536
-59.3103 -250.386 933.706
-59.1734 -251.617 933.925
-58.86 -252.89 934.209
-58.4561 -254.222 934.531
-58.2383 -255.599 934.798
-58.5001 -256.964 934.901
-57.3635 -259.299 935.611
-57.2699 -259.641 935.69
-56.6752 -260.849 936.06
-55.9731 -261.9 936.444
-54.571 -263.604 937.156
-38.2963 -224.4 937.156
-40.3851 -224.937 936.527
-41.7369 -225.346 936.128
-43.0974 -225.817 935.735
-44.4591 -226.36 935.352
-44.5831 -226.413 935.317
-44.6739 -226.457 935.293
-44.7438 -226.494 935.274
-48.1248 -228.437 934.406
-49.1678 -229.184 934.158
-50.1783 -229.988 933.93
-51.1533 -230.849 933.722
-52.0903 -231.764 933.534
-52.9864 -232.734 933.367
-53.8368 -233.755 933.224
-54.6351 -234.822 933.104
-54.6373 -234.825 933.103
-54.6393 -234.828 933.103
-54.641 -234.831 933.103
-54.6425 -234.834 933.103
-57.2447 -240.121 932.965
-58.8544 -245.486 933.174
-58.861 -245.509 933.175
-58.8666 -245.534 933.176
-58.8715 -245.559 933.178
-58.8762 -245.585 933.18
-59.0687 -246.812 933.287
-59.2221 -248.022 933.405
-59.3188 -249.218 933.54
-59.3395 -250.407 933.699
-59.2636 -251.593 933.891
-59.2291 -251.852 933.939
-58.9944 -253.113 934.195
-58.6463 -254.38 934.489
-57.5185 -258.859 935.497
-57.3548 -259.473 935.638
-56.7309 -260.602 936.007
-54.4172 -263.794 937.235
-54.4018 -263.838 937.246
-54.3778 -263.895 937.262
-53.7062 -265.01 937.645
-52.9409 -266.161 938.064
-51.9937 -267.28 938.54
-50.5736 -268.499 939.19
-31.9213 -223.567 939.19
-34.0263 -223.662 938.493
-35.3614 -223.814 938.064
-37.6862 -224.25 937.341
-37.8048 -224.274 937.304
-37.8837 -224.293 937.28
-41.8206 -225.307 936.094
-43.1869 -225.802 935.703
-44.5061 -226.36 935.336
-44.5727 -226.39 935.317
-44.6278 -226.418 935.303
-44.6745 -226.445 935.291
-57.5191 -259.157 935.539
-57.5851 -259.308 935.538
-54.3898 -263.833 937.249
-54.3744 -263.858 937.258
-54.3551 -263.887 937.269
-53.6141 -264.949 937.667
-52.8589 -266.029 938.073
-49.9589 -268.926 939.457
-49.864 -269.03 939.504
-49.7202 -269.164 939.571
-49.485 -269.354 939.677
-48.2455 -270.272 940.224
-46.1934 -271.536 941.093
-26.3243 -223.673 941.093
-29.4851 -223.527 940.006
-31.0727 -223.533 939.472
-31.2585 -223.54 939.41
-31.3777 -223.549 939.371
-36.3207 -223.97 937.762
-37.7164 -224.255 937.331
-37.7794 -224.267 937.312
-37.8293 -224.279 937.297
-37.87 -224.29 937.284
-49.7937 -269.037 939.529
-49.7243 -269.099 939.561
-49.6382 -269.17 939.6
-49.5295 -269.251 939.648
-45.8925 -271.675 941.214
-45.8444 -271.703 941.234
-45.7756 -271.739 941.262
-44.6357 -272.251 941.719
-44.2499 -272.42 941.872
-42.8621 -272.996 942.421
-40.714 -273.824 943.262
-20.1835 -224.368 943.262
-21.7361 -224.087 942.699
-23.1695 -223.897 942.189
-24.6685 -223.759 941.664
-26.2291 -223.675 941.125
-26.2471 -223.674 941.119
-26.2595 -223.674 941.115
-31.0582 -223.512 939.473
-31.1538 -223.516 939.442
