-57.092551 7.958692 1392.933005
-57.106631 9.739438 1393.090355
-57.085850 11.524594 1393.262583
-57.022886 13.313977 1393.458596
-56.900005 15.107388 1393.683850
-56.720712 16.904599 1394.098176
-56.714728 18.705457 1394.234409
-56.746613 20.509732 1394.327749
-56.810221 22.317227 1394.388395
-56.892130 24.127774 1394.430556
-57.158411 25.941144 1394.453725
-57.289167 27.757153 1394.448141
-57.460087 29.575604 1394.393226
-57.766736 31.396298 1394.258552
-57.972242 33.219037 1394.110252
-58.576933 35.043622 1393.660598
-59.181448 36.869855 1393.274456
-59.505416 38.697553 1393.094845
-59.752024 40.526502 1393.022139
-59.940673 42.356503 1393.012207
-60.118059 44.187360 1393.018551
-60.286327 46.018887 1393.039345
-60.519568 47.850888 1393.052643
-60.673767 49.683148 1393.051727
-60.903667 51.515485 1393.050822
-61.116891 53.347684 1393.060831
-61.368859 55.179578 1393.035493
-61.621927 57.010938 1393.019284
-61.903101 58.841580 1392.968419
-62.271452 60.671292 1392.843994
-62.613972 62.499921 1392.752086
-63.062770 64.327222 1392.556204
-63.507364 66.152997 1392.359876
-64.129671 67.977094 1391.979935
-64.973565 69.799268 1391.573211
-65.511206 71.619336 1391.233483
-66.567653 73.437146 1390.566170
-66.957411 75.252423 1390.383976
-67.098100 77.065015 1390.294394
-67.918202 78.874707 1389.822977
-68.561953 80.681317 1389.606656
-68.809274 82.484662 1389.569005
-69.193793 84.284497 1389.483628
-69.494567 86.080670 1389.428615
-70.151235 87.872937 1389.269505
-70.482362 89.661145 1389.216389
-70.772863 91.445081 1389.297341
-71.106760 93.224561 1389.241306
-71.594842 94.999341 1389.117400
-72.019787 96.769299 1389.204813
-72.332512 98.534162 1389.292026
-72.691605 100.293775 1389.264580
-73.186626 102.047925 1389.173116
-73.647994 103.796399 1389.239381
-74.007563 105.539044 1389.319159
-74.417321 107.275647 1389.293694
-74.874149 109.005994 1389.287400
-75.368987 110.729901 1389.341161
-75.751990 112.447156 1389.364117
-76.278165 114.157575 1389.324738
-76.742498 115.860944 1389.400340
-77.225090 117.557080 1389.379176
-77.720718 119.245801 1389.407495
-78.243340 120.926892 1389.400918
-78.765141 122.600141 1389.416188
-79.269289 124.265363 1389.467098
-79.844812 125.922376 1389.422441
-80.363550 127.570966 1389.482520
-80.946713 129.210950 1389.438832
-81.495167 130.842114 1389.490564
-82.062714 132.464246 1389.438556
-82.652943 134.077191 1389.493300
-83.214293 135.680707 1389.577420
-83.845554 137.274640 1389.509507
-84.434670 138.858777 1389.579289
-85.081395 140.432874 1389.506242
-85.667903 141.996808 1389.578103
-86.304078 143.550336 1389.581316
-86.952194 145.093305 1389.574476
-87.600775 146.625440 1389.582972
-88.265509 148.146619 1389.575693
-88.937977 149.656598 1389.549160
-89.633197 151.155194 1389.526940
-90.292536 152.642224 1389.550686
-90.996923 154.117474 1389.552576
-91.684237 155.580731 1389.583897
-92.421589 157.031842 1389.507768
-93.117616 158.470563 1389.541074
-93.815850 159.896741 1389.550954
-94.562498 161.310132 1389.547413
-95.309932 162.710584 1389.520538
-96.084971 164.097852 1389.491289
-96.924567 165.471784 1389.454932
-97.555665 166.832166 1389.544221
-98.395288 168.178784 1389.456460
-99.250663 169.511456 1389.586198
-100.109358 170.829968 1388.752993
-101.063414 172.134168 1388.269994
-101.781354 173.423810 1388.603280
-102.632142 174.698712 1388.344357
-70.179584 -185.041308 1384.770912
-69.224249 -184.012684 1385.484892
-68.424998 -182.953967 1386.054006
-68.166512 -181.865522 1385.947638
-67.232551 -180.747712 1386.668982
-66.909155 -179.600902 1386.664942
-66.363912 -178.425454 1386.394400
-65.590408 -177.221734 1387.041462
-67.291397 -175.990104 1385.318194
-66.422110 -174.730928 1385.755187
-65.644411 -173.444568 1386.233856
-65.096124 -172.131391 1386.705920
-66.021179 -170.791761 1385.064695
-64.864812 -169.426038 1385.667110
-65.031810 -168.034589 1385.970891
-64.074269 -166.617776 1386.329639
-63.351514 -165.175963 1386.690350
-64.971181 -163.709516 1385.255479
-62.860743 -162.218795 1385.440268
-63.288394 -160.704166 1385.813494
-63.858775 -159.165992 1385.812248
-63.476577 -157.604640 1385.813764
-63.020203 -156.020469 1385.906054
-62.860217 -154.413844 1385.892859
-62.465797 -152.785129 1385.969513
-62.343212 -151.134688 1386.225104
-61.869735 -149.462886 1386.323528
-61.409639 -147.770087 1386.388129
-61.388936 -146.056651 1386.388012
-61.027055 -144.322948 1386.390493
-60.536876 -142.569331 1386.541065
-59.884725 -140.796176 1386.907882
-59.592941 -139.003841 1386.951880
-59.381896 -137.192691 1386.957620
-59.494337 -135.363086 1386.966336
-59.105874 -133.515391 1387.096038
-58.696422 -131.649978 1387.202054
-58.325033 -129.767200 1387.281839
-57.861509 -127.867427 1387.500204
-57.641728 -125.951015 1387.513487
-57.400832 -124.018336 1387.562558
-57.097019 -122.069751 1387.827152
-56.878346 -120.105632 1387.830101
-56.670984 -118.126323 1387.836609
-56.433843 -116.132205 1387.881068
-56.723152 -114.123637 1387.898860
-56.361196 -112.100978 1388.211810
-56.124750 -110.064601 1388.254984
-55.301165 -108.014857 1388.423234
-55.154595 -105.952121 1388.470086
-55.052162 -103.876758 1388.481855
-54.874045 -101.789119 1388.377395
-55.047826 -99.689578 1388.123691
-54.809963 -97.578502 1388.239845
-54.591448 -95.456241 1388.375558
-54.380244 -93.323169 1388.518917
-54.244028 -91.179645 1388.589427
-54.404133 -89.026042 1388.571018
-54.174550 -86.862712 1388.746546
-53.965962 -84.690021 1388.920964
-53.696438 -82.508342 1389.167098
-53.507267 -80.318027 1389.391401
-53.324588 -78.119449 1389.599976
-52.884489 -75.912959 1389.847242
-52.586298 -73.698939 1390.154472
-52.228464 -71.477740 1390.458648
-51.980165 -69.249728 1390.758228
-51.824117 -67.015262 1390.882829
-51.785773 -64.774722 1390.987691
-51.784665 -62.528461 1391.071311
-51.820082 -60.276843 1391.134762
-51.770240 -58.020221 1391.189493
-51.848109 -55.758975 1391.233871
-51.942220 -53.493472 1391.274932
-52.050432 -51.224048 1391.315818
-52.058958 -48.951099 1391.348924
-52.187397 -46.674975 1391.388904
-52.330556 -44.396030 1391.431064
-52.361388 -42.114657 1391.477356
-52.479007 -39.831180 1391.528633
-52.592682 -37.545993 1391.598383
-52.696001 -35.259448 1391.689181
-52.741443 -32.971927 1391.821164
-52.738630 -30.683749 1392.026813
-52.598329 -28.395328 1392.381888
-52.117883 -26.106998 1392.919640
-51.610905 -23.819125 1393.824709
-51.831830 -21.532092 1394.004625
-52.045958 -19.246249 1393.836604
-52.313069 -16.961948 1393.853663
-52.654395 -14.679568 1393.826644
-53.141218 -12.399478 1393.710650
-53.616765 -10.122027 1393.651475
-54.123404 -7.847583 1393.350414
-54.984613 -5.576510 1392.924113
-55.468360 -3.309192 1392.703560
-55.959433 -1.045947 1392.624130
-56.394054 1.212811 1392.504030
-56.824956 3.466748 1392.482092
-57.093938 5.715497 1392.662204
