-127.654  97.8494  124.608
-122.993  95.5021  124.608
-116.523  98.4406  124.608
-110.55  101.285  124.608
-104.699  104.816  124.608
-99.5139  108.899  124.608
-97.2781  114.776  124.608
-95.0474  121.159  124.608
-92.413  127.441  124.608
-91.0055  134.083  124.608
-91.6173  139.7  124.608
-93.3098  145.013  124.608
-95.7849  150.009  124.608
-99.1777  154.225  124.608
-103.119  158.074  124.608
-107.41  161.543  124.608
-112.007  164.433  124.608
-116.813  166.921  124.608
-121.957  167.757  124.608
-127.383  168.682  124.608
-134.864  167.704  124.608
-142.131  165.924  124.608
-149.273  162.966  124.608
-156.023  159.052  124.608
-161.695  154.323  124.608
-166.821  148.794  124.608
-171.373  142.759  124.608
-175.607  136.559  124.608
-179.794  130.316  124.608
-182.146  123.288  124.608
-179.682  116.769  124.608
-174.645  111.831  124.608
-168.114  109.039  124.608
-161.068  106.95  124.608
-154.081  105.444  124.608
-147.253  104.204  124.608
-140.215  102.985  124.608
-133.11  101.799  124.608
-129.891  93.3111  165.608
-122.809  95.229  165.608
-116.787  98.3999  165.608
-111.638  101.742  165.608
-106.271  105.707  165.608
-101.415  111.24  165.608
-99.4672  117.548  165.608
-96.986  123.897  165.608
-94.693  130.556  165.608
-93.7613  137.527  165.608
-94.4591  143.034  165.608
-95.5855  148.387  165.608
-97.4781  153.575  165.608
-100.117  158.429  165.608
-103.68  162.614  165.608
-107.9  166.111  165.608
-112.486  169.008  165.608
-117.43  171.247  165.608
-122.67  172.41  165.608
-127.998  172.821  165.608
-135.223  172.004  165.608
-142.102  169.37  165.608
-148.925  166.617  165.608
-155.501  163.329  165.608
-162.104  160.049  165.608
-168.126  155.926  165.608
-173.298  150.712  165.608
-177.552  144.711  165.608
-180.358  137.893  165.608
-181.756  130.614  165.608
-180.936  122.485  165.608
-177.742  114.873  165.608
-172.665  108.789  165.608
-165.955  104.563  165.608
-158.532  101.604  165.608
-150.879  99.6197  165.608
-142.74  99.5248  165.608
-135.571  98.3007  165.608
-135.709  92.0784  206.608
-130.032  89.6262  206.608
-122.907  94.1279  206.608
-116.149  97.9538  206.608
-109.939  102.832  206.608
-104.464  109.367  206.608
-101.523  116.725  206.608
-98.8492  124.074  206.608
-96.1164  131.592  206.608
-95.9045  139.761  206.608
-95.9986  145.519  206.608
-97.8597  151.216  206.608
-100.387  156.649  206.608
-103.47  161.563  206.608
-107.529  165.642  206.608
-112.329  168.921  206.608
-117.428  171.667  206.608
-122.808  174.082  206.608
-128.431  175.481  206.608
-134.241  176.191  206.608
-141.853  176.302  206.608
-148.807  173.773  206.608
-155.582  170.637  206.608
-162.673  168.305  206.608
-169.115  164.39  206.608
-174.629  159.169  206.608
-179.272  153.329  206.608
-182.995  146.735  206.608
-185.35  139.602  206.608
-185.67  131.891  206.608
-184.89  123.679  206.608
-182.301  115.625  206.608
-177.903  108.612  206.608
-171.836  103.231  206.608
-164.763  99.1123  206.608
-157.197  96.2305  206.608
-149.16  94.3219  206.608
-141.229  95.6714  206.608
-138.837  82.8015  247.608
-129.509  84.1605  247.608
-120.778  87.8557  247.608
-113.323  93.2796  247.608
-106.737  99.5534  247.608
-101.228  106.203  247.608
-98.5279  115.042  247.608
-94.6145  123.569  247.608
-91.0583  132.132  247.608
-90.7074  141.681  247.608
-91.2699  148.34  247.608
-93.9868  154.564  247.608
-97.3962  160.279  247.608
-101.645  165.488  247.608
-106.641  170.114  247.608
-112.263  173.886  247.608
-118.373  176.702  247.608
-124.785  178.978  247.608
-131.431  180.228  247.608
-138.171  180.453  247.608
-145.569  178.854  247.608
-152.822  176.392  247.608
-160.269  174.347  247.608
-167.371  171.814  247.608
-173.753  167.559  247.608
-179.101  162.079  247.608
-183.436  155.934  247.608
-186.978  149.041  247.608
-189.115  141.593  247.608
-189.727  133.776  247.608
-188.554  125.046  247.608
-185.823  116.74  247.608
-181.515  109.111  247.608
-175.667  102.69  247.608
-168.521  97.8104  247.608
-161.178  93.4894  247.608
-152.592  90.994  247.608
-145.497  86.9585  247.608
-141.433  76.3312  288.608
-131.459  77.9188  288.608
-121.76  81.0599  288.608
-112.867  85.9073  288.608
-105.189  92.3648  288.608
-99.0445  100.213  288.608
-95.7882  109.444  288.608
-92.183  118.502  288.608
-87.9661  127.275  288.608
-85.8247  136.912  288.608
-86.2411  144.737  288.608
-88.3125  152.249  288.608
-92.0143  159.1  288.608
-96.4233  165.669  288.608
-101.865  171.242  288.608
-108.24  175.682  288.608
-115.145  179.286  288.608
-122.426  182.148  288.608
-130.039  183.858  288.608
-137.842  184.377  288.608
-146.179  183.882  288.608
-154.454  181.622  288.608
-162.665  179.449  288.608
-170.569  176.458  288.608
-177.699  171.664  288.608
-183.743  165.403  288.608
-188.524  158.222  288.608
-191.975  150.172  288.608
-194.094  141.712  288.608
-194.808  133.023  288.608
-193.787  123.605  288.608
-190.559  114.915  288.608
-186.181  106.502  288.608
-180.576  98.88  288.608
-173.48  92.7265  288.608
-165.688  87.3247  288.608
-156.438  84.6617  288.608
-148.873  80.3013  288.608
-142.379  69.0922  329.608
-131.075  70.89  329.608
-120.497  75.299  329.608
-110.736  81.2586  329.608
-102.406  89.0298  329.608
-96.2975  98.5341  329.608
-92.7328  108.688  329.608
-87.795  118.449  329.608
-82.8834  128.513  329.608
-81.2187  139.734  329.608
-83.047  148.486  329.608
-86.2888  156.736  329.608
-91.16  164.049  329.608
-97.0757  170.539  329.608
-103.92  175.976  329.608
-111.453  180.507  329.608
-119.431  184.244  329.608
-127.897  186.637  329.608
-136.664  188.193  329.608
-145.454  188.118  329.608
-153.685  185.938  329.608
-162.097  183.801  329.608
-170.436  181.51  329.608
-177.809  177.04  329.608
-184.446  171.358  329.608
-190.229  164.755  329.608
-194.96  157.289  329.608
-198.603  149.352  329.608
-200.746  140.792  329.608
-201.564  132.001  329.608
-200.847  121.363  329.608
-197.796  111.285  329.608
-193.333  101.703  329.608
-187.708  92.8434  329.608
-180.067  85.6086  329.608
-170.989  80.217  329.608
-161.346  75.9886  329.608
-152.329  71.4039  329.608
-142.727  67.2332  370.608
-131.156  68.8132  370.608
-120.175  73.0072  370.608
-110.231  78.9851  370.608
-101.12  86.5255  370.608
-93.6845  95.5591  370.608
-90.9431  106.037  370.608
-85.9654  115.809  370.608
-80.9489  126.086  370.608
-78.3343  137.327  370.608
-79.9243  146.39  370.608
-82.8379  155.093  370.608
-87.3598  162.952  370.608
-93.2938  169.805  370.608
-100.243  175.535  370.608
-107.921  180.233  370.608
-116.146  184.045  370.608
-124.766  186.913  370.608
-133.692  188.972  370.608
-142.727  190.094  370.608
-151.725  188.643  370.608
-160.326  185.613  370.608
-169.026  182.759  370.608
-177.054  178.177  370.608
-184.295  172.416  370.608
-190.547  165.653  370.608
-195.706  157.987  370.608
-199.804  149.749  370.608
-202.339  140.879  370.608
-203.2  131.615  370.608
-201.963  120.869  370.608
-199.033  110.439  370.608
-194.18  100.751  370.608
-187.945  91.8204  370.608
-180.213  84.1321  370.608
-170.815  78.5167  370.608
-161.464  73.8924  370.608
-153.228  68.7487  370.608
-141.719  66.4201  386.608
-130.569  68.2498  386.608
-120.048  72.2661  386.608
-110.101  77.7731  386.608
-100.923  84.5977  386.608
-93.2229  93.0839  386.608
-87.3637  102.911  386.608
-82.7237  113.263  386.608
-78.9098  123.827  386.608
-77.218  134.915  386.608
-78.1907  144.307  386.608
-81.1932  153.331  386.608
-85.9255  161.429  386.608
-92.088  168.506  386.608
-99.5283  174.094  386.608
-107.764  178.501  386.608
-116.293  182.365  386.608
-125.265  185.445  386.608
-134.459  187.739  386.608
-143.797  188.771  386.608
-152.887  186.948  386.608
-161.676  183.933  386.608
-170.4  180.72  386.608
-178.77  176.901  386.608
-186.248  171.459  386.608
-192.876  164.96  386.608
-198.619  157.764  386.608
-203.139  149.66  386.608
-205.95  140.793  386.608
-207.374  131.565  386.608
-206.384  120.04  386.608
-203.378  108.885  386.608
-198.541  98.3319  386.608
-192.156  88.5947  386.608
-184.396  80.0674  386.608
-175.026  73.104  386.608
-164.498  68.2943  386.608
-153.223  66.5225  386.608
-139.292  67.1556  402.608
-128.328  68.4855  402.608
-117.901  72.2204  402.608
-108.261  77.606  402.608
-99.6363  84.5188  402.608
-91.9485  92.4539  402.608
-86.0136  101.66  402.608
-80.7878  111.191  402.608
-76.6238  121.221  402.608
-74.6334  131.975  402.608
-75.2984  141.57  402.608
-78.3148  150.754  402.608
-83.3064  158.898  402.608
-89.7795  165.849  402.608
-97.3008  171.708  402.608
-105.53  176.526  402.608
-114.246  180.362  402.608
-123.372  183.535  402.608
-132.75  185.81  402.608
-142.333  186.62  402.608
-150.763  185.825  402.608
-159.017  183.13  402.608
-167.034  179.931  402.608
-174.667  176.211  402.608
-181.794  171.426  402.608
-187.801  165.36  402.608
-192.286  158.097  402.608
-195.408  150.005  402.608
-197.592  141.814  402.608
-197.184  133.651  402.608
-196.557  122.815  402.608
-195.791  112.011  402.608
-192.582  101.568  402.608
-186.724  92.331  402.608
-178.602  84.8736  402.608
-169.456  78.8278  402.608
-160.054  73.172  402.608
-150.231  68.4843  402.608
-135.893  65.7998  418.608
-125.135  67.26  418.608
-115.015  71.0041  418.608
-105.422  76.1573  418.608
-96.7958  82.8554  418.608
-89.73  91.0184  418.608
-84.0763  100.164  418.608
-78.8848  109.317  418.608
-75.3807  119.297  418.608
-74.1912  130.036  418.608
-75.0201  139.395  418.608
-78.0504  148.349  418.608
-82.4774  156.664  418.608
-88.4876  163.826  418.608
-95.7115  169.736  418.608
-103.762  174.428  418.608
-112.36  178.101  418.608
-121.332  181.186  418.608
-130.648  183.143  418.608
-139.974  184.308  418.608
-148.382  183.148  418.608
-156.387  180.424  418.608
-164.271  177.296  418.608
-171.978  174.083  418.608
-178.814  169.352  418.608
-184.707  163.189  418.608
-189.222  156.056  418.608
-191.559  148.146  418.608
-193.037  140.04  418.608
-193.905  131.729  418.608
-193.615  120.816  418.608
-192.937  110.022  418.608
-189.658  99.7879  418.608
-183.077  90.7806  418.608
-175.009  83.6493  418.608
-165.579  78.1172  418.608
-156.287  72.5205  418.608
-146.39  68.1662  418.608
-130.736  64.2344  434.608
-120.416  65.3041  434.608
-110.678  69.1237  434.608
-101.828  74.5941  434.608
-93.7943  81.3385  434.608
-86.6732  88.9442  434.608
-81.3059  97.8844  434.608
-76.5307  107.128  434.608
-73.2726  116.925  434.608
-72.5308  127.376  434.608
-73.2616  136.637  434.608
-76.4274  145.451  434.608
-80.9247  153.622  434.608
-86.8569  160.714  434.608
-93.9971  166.608  434.608
-101.957  171.361  434.608
-110.416  175.105  434.608
-119.38  177.938  434.608
-128.561  179.922  434.608
-137.832  180.715  434.608
-146.204  179.683  434.608
-154.103  176.449  434.608
-162.176  173.27  434.608
-170.081  169.945  434.608
-176.838  164.899  434.608
-182.025  158.183  434.608
-185.729  150.497  434.608
-188.338  142.311  434.608
-189.844  133.831  434.608
-190.56  125.15  434.608
-190.027  114.51  434.608
-188.278  104.403  434.608
-183.559  95.1501  434.608
-176.463  87.252  434.608
-168.204  81.0346  434.608
-159.379  75.2343  434.608
-150.647  69.6935  434.608
-141.05  66.0576  434.608
-126.685  60.5385  453.608
-116.189  61.1743  453.608
-106.641  65.2269  453.608
-98.3276  71.4593  453.608
-90.6133  78.4776  453.608
-83.4122  86.0613  453.608
-77.3134  94.4971  453.608
-71.2337  102.741  453.608
-66.795  111.907  453.608
-64.8986  122.109  453.608
-65.74  131.708  453.608
-68.7417  140.651  453.608
-74.1488  148.358  453.608
-80.556  155.214  453.608
-87.7357  161.25  453.608
-95.6368  166.408  453.608
-104.142  170.552  453.608
-113.193  173.445  453.608
-122.353  175.819  453.608
-131.663  177.093  453.608
-140.186  176.026  453.608
-148.514  173.105  453.608
-156.688  169.993  453.608
-164.484  166.458  453.608
-171.06  160.7  453.608
-176.291  153.462  453.608
-180.123  145.777  453.608
-182.305  137.368  453.608
-183.916  128.712  453.608
-183.95  120.031  453.608
-183.989  109.931  453.608
-181.552  100.483  453.608
-175.943  92.3069  453.608
-169.11  84.9422  453.608
-161.566  78.3105  453.608
-153.145  72.7227  453.608
-144.773  67.3174  453.608
-136.115  62.736  453.608
-123.127  54.2852  472.608
-111.827  55.7581  472.608
-101.951  60.4952  472.608
-93.3326  67.5996  472.608
-84.9756  74.9886  472.608
-77.3205  82.8269  472.608
-69.4358  90.492  472.608
-60.8142  97.6277  472.608
-54.9873  107.009  472.608
-53.2054  118.214  472.608
-53.466  128.189  472.608
-56.6574  137.422  472.608
-62.7099  145.299  472.608
-69.927  152.139  472.608
-78.1319  157.515  472.608
-87.1442  161.609  472.608
-96.2371  165.491  472.608
-105.534  168.845  472.608
-115.004  171.726  472.608
-124.738  173.055  472.608
-133.658  172.005  472.608
-142.424  169.767  472.608
-150.869  167.135  472.608
-158.514  162.747  472.608
-164.727  156.307  472.608
-169.845  148.706  472.608
-174.002  140.685  472.608
-176.47  132.023  472.608
-177.669  123.036  472.608
-177.399  114.034  472.608
-177.996  104.567  472.608
-173.842  96.0859  472.608
-167.831  88.3763  472.608
-161.982  80.6166  472.608
-155.746  73.2178  472.608
-149.195  66.3031  472.608
-140.872  61.7097  472.608
-132.146  57.5489  472.608
-115.53  48.4538  497.691
-103.893  50.3646  497.691
-94.2537  56.5502  497.691
-86.0321  64.726  497.691
-78.5448  73.3477  497.691
-71.5123  82.3798  497.691
-62.2665  89.3185  497.691
-53.3184  96.5618  497.691
-47.538  106.509  497.691
-45.203  117.826  497.691
-46.2018  127.523  497.691
-50.5295  136.047  497.691
-57.4248  142.686  497.691
-65.0415  148.724  497.691
-73.2048  153.691  497.691
-82.0542  157.248  497.691
-91.1435  160.428  497.691
-99.933  164.406  497.691
-108.75  168.154  497.691
-118.412  168.796  497.691
-126.22  168.611  497.691
-134.452  166.013  497.691
-142.746  163.637  497.691
-150.511  159.86  497.691
-157.097  154.32  497.691
-162.601  147.533  497.691
-167.109  140.057  497.691
-170.127  131.937  497.691
-171.972  123.441  497.691
-172.458  114.811  497.691
-172.167  103.823  497.691
-168.212  93.9502  497.691
-163.178  84.5041  497.691
-159.299  74.4403  497.691
-154.415  64.9777  497.691
-146.243  58.0301  497.691
-136.589  52.9234  497.691
-126.111  50.2183  497.691
-118.682  46.3827  522.775
-106.393  47.1466  522.775
-95.0123  49.5414  522.775
-84.4838  56.1388  522.775
-74.8713  63.8617  522.775
-66.8931  73.1903  522.775
-58.1488  81.56  522.775
-50.346  90.8669  522.775
-44.5366  101.568  522.775
-41.5636  113.404  522.775
-41.8219  122.888  522.775
-45.3798  131.724  522.775
-51.3247  139.101  522.775
-58.653  145.193  522.775
-66.5412  150.479  522.775
-74.691  155.187  522.775
-83.2766  159.251  522.775
-92.1136  163.006  522.775
-100.868  166.647  522.775
-109.935  169.106  522.775
-118.533  169.042  522.775
-126.84  166.762  522.775
-134.576  163.227  522.775
-142.124  159.152  522.775
-149.267  154.147  522.775
-155.536  148.159  522.775
-160.612  141.283  522.775
-164.555  133.518  522.775
-167.327  125.333  522.775
-168.421  116.843  522.775
-168.211  105.969  522.775
-165.817  95.49  522.775
-162.261  85.4265  522.775
-159.583  75.0285  522.775
-155.983  64.9849  522.775
-148.955  56.9923  522.775
-139.565  51.5178  522.775
-129.334  47.7002  522.775
-118.304  45.8348  547.858
-105.802  47.6129  547.858
-93.2466  48.6523  547.858
-81.5852  52.7429  547.858
-71.7259  61.2265  547.858
-63.2894  70.1895  547.858
-53.6002  78.3466  547.858
-44.9691  87.5769  547.858
-38.9568  98.7005  547.858
-36.4446  111.096  547.858
-37.5269  121.235  547.858
-40.4802  130.889  547.858
-45.5771  139.502  547.858
-52.2985  146.904  547.858
-60.1913  152.982  547.858
-68.8023  158.041  547.858
-77.8217  162.433  547.858
-87.3849  165.632  547.858
-97.1938  168.084  547.858
-107.068  169.623  547.858
-115.804  169.074  547.858
-124.259  166.42  547.858
-132.284  162.77  547.858
-139.876  158.07  547.858
-146.719  152.401  547.858
-152.72  145.813  547.858
-157.683  138.381  547.858
-161.147  130.269  547.858
-163.504  121.704  547.858
-164.804  112.89  547.858
-163.784  102.94  547.858
-161.752  93.2461  547.858
-159.025  83.6384  547.858
-156.456  73.9873  547.858
-152.786  64.9882  547.858
-145.901  57.8643  547.858
-137.285  52.49  547.858
-128.064  48.2536  547.858
-110.967  45.3158  572.941
-98.6428  47.6258  572.941
-86.106  49.298  572.941
-74.1025  52.3523  572.941
-64.3666  59.9259  572.941
-56.117  68.8846  572.941
-47.0286  77.6548  572.941
-39.624  87.7708  572.941
-34.788  99.2779  572.941
-32.3416  111.658  572.941
-32.9575  121.429  572.941
-35.2878  130.988  572.941
-39.2398  139.974  572.941
-44.7747  148.031  572.941
-51.6802  154.792  572.941
-59.6024  160.369  572.941
-68.1882  164.96  572.941
-77.2746  168.249  572.941
-86.803  170.159  572.941
-96.5198  171.019  572.941
-106.511  170.214  572.941
-116.356  168.368  572.941
-125.921  164.871  572.941
-134.957  160.341  572.941
-142.953  154.045  572.941
-149.724  146.365  572.941
-155.418  137.996  572.941
-160.168  129.118  572.941
-162.9  119.383  572.941
-163.216  109.266  572.941
-162.388  99.2073  572.941
-159.813  89.3093  572.941
-156.702  79.6932  572.941
-152.863  70.2807  572.941
-147.539  61.7075  572.941
-139.708  55.3155  572.941
-130.665  50.5293  572.941
-121.022  47.1195  572.941
-105.276  44.4099  598.025
-92.4836  46.8598  598.025
-79.0455  48.4673  598.025
-67.5011  51.498  598.025
-58.104  58.6908  598.025
-48.2665  67.3746  598.025
-39.1554  76.6833  598.025
-31.8173  87.682  598.025
-27.6525  100.201  598.025
-25.9867  113.351  598.025
-27.1773  123.17  598.025
-29.7338  132.717  598.025
-33.7968  141.668  598.025
-39.2556  149.816  598.025
-45.9314  156.955  598.025
-53.6334  162.932  598.025
-62.1586  167.642  598.025
-71.2812  171.04  598.025
-80.781  173.186  598.025
-90.5023  174.008  598.025
-101.036  173.036  598.025
-111.223  170.293  598.025
-121.112  166.754  598.025
-130.672  162.74  598.025
-139.613  156.888  598.025
-147.416  149.599  598.025
-153.975  141.428  598.025
-159.452  132.252  598.025
-162.812  122.269  598.025
-164.82  111.974  598.025
-163.956  100.843  598.025
-160.966  90.1177  598.025
-156.944  79.6609  598.025
-152.255  69.5745  598.025
-145.746  60.8219  598.025
-136.691  54.3899  598.025
-126.769  49.1865  598.025
-116.299  45.6793  598.025
-102.291  41.9807  623.108
-89.1574  44.1212  623.108
-76.0807  47.4674  623.108
-63.4834  52.508  623.108
-51.7458  59.2002  623.108
-41.365  67.757  623.108
-32.5539  77.9305  623.108
-25.5641  89.4236  623.108
-21.3724  102.189  623.108
-18.9491  115.252  623.108
-20.3312  125.305  623.108
-22.8635  135.178  623.108
-27.0824  144.557  623.108
-32.7977  153.104  623.108
-39.8803  160.518  623.108
-48.0883  166.604  623.108
-57.1157  171.353  623.108
-66.7007  174.94  623.108
-76.6911  176.868  623.108
-86.873  177.228  623.108
-98.3492  176.188  623.108
-109.569  173.809  623.108
-120.392  170.439  623.108
-130.724  165.149  623.108
-140.766  159.423  623.108
-149.848  152.461  623.108
-157.795  144.14  623.108
-164.457  134.914  623.108
-168.337  124.116  623.108
-170.485  112.681  623.108
-168.574  101.034  623.108
-163.929  90.1694  623.108
-158.923  79.4002  623.108
-153.172  68.8552  623.108
-145.816  59.4818  623.108
-136.383  52.1215  623.108
-125.599  46.9655  623.108
-114.155  43.7286  623.108
-99.9422  38.883  648.191
-86.2509  41.984  648.191
-72.5627  45.5519  648.191
-59.3107  50.9315  648.191
-47.0364  58.0638  648.191
-36.2637  67.1547  648.191
-26.9158  77.6329  648.191
-19.675  89.4979  648.191
-13.9  102.356  648.191
-11.8842  116.214  648.191
-12.1555  125.981  648.191
-14.5116  135.32  648.191
-18.5171  144.314  648.191
-23.178  152.838  648.191
-29.4034  160.315  648.191
-36.8677  166.714  648.191
-44.8931  172.113  648.191
-53.7032  176.236  648.191
-62.8822  179.557  648.191
-72.2847  180.995  648.191
-85.1663  180.23  648.191
-98.4204  179.233  648.191
-111.062  175.415  648.191
-122.857  169.53  648.191
-135  164.327  648.191
-146.234  157.515  648.191
-155.935  148.475  648.191
-164.193  138.326  648.191
-170.23  126.603  648.191
-172.41  113.511  648.191
-169.697  101.41  648.191
-165.254  89.7073  648.191
-160.223  78.0176  648.191
-154.103  66.8625  648.191
-146.088  57.0052  648.191
-135.979  49.5913  648.191
-124.557  44.1947  648.191
-112.479  40.6889  648.191
-98.2687  35.0282  673.275
-83.1039  37.9885  673.275
-68.1994  41.899  673.275
-54.1912  48.4935  673.275
-41.2369  57.0382  673.275
-29.4822  66.9469  673.275
-19.5451  78.6781  673.275
-11.849  91.9132  673.275
-7.27538  106.285  673.275
-5.32311  121.521  673.275
-7.22732  131.082  673.275
-9.61713  140.514  673.275
-13.3159  149.449  673.275
-18.9448  157.347  673.275
-25.6508  164.354  673.275
-33.2247  170.25  673.275
-41.5919  174.946  673.275
-50.289  178.92  673.275
-59.3167  182.424  673.275
-68.2848  182.549  673.275
-81.732  181.414  673.275
-95.1669  178.812  673.275
-108.462  175.81  673.275
-121.185  171.409  673.275
-133.498  165.555  673.275
-145.073  158.316  673.275
-155.205  149.296  673.275
-163.357  138.289  673.275
-169.664  126.309  673.275
-171.391  112.859  673.275
-168.674  100.272  673.275
-164.253  88.0547  673.275
-159.34  75.9323  673.275
-153.25  64.398  673.275
-145.493  53.9137  673.275
-135.277  45.7188  673.275
-123.564  40.0078  673.275
-111.076  36.5498  673.275
-98.3137  32.0087  698.358
-82.655  33.8069  698.358
-67.2747  37.4507  698.358
-52.7548  43.7084  698.358
-39.54  52.5099  698.358
-27.5157  62.8299  698.358
-16.9905  74.5291  698.358
-8.68137  87.8606  698.358
-2.35375  102.171  698.358
1.14134  117.274  698.358
-0.0623522  127.829  698.358
-2.77926  138.142  698.358
-6.9985  147.967  698.358
-12.6808  156.883  698.358
-19.6298  164.898  698.358
-27.6886  171.74  698.358
-36.7007  177.149  698.358
-46.415  181.327  698.358
-56.4159  184.704  698.358
-66.7325  187.173  698.358
-79.0341  184.637  698.358
-92.3924  181.964  698.358
-105.837  178.383  698.358
-118.949  173.976  698.358
-131.524  168.167  698.358
-143.267  160.714  698.358
-153.591  151.537  698.358
-161.812  140.6  698.358
-167.676  128.004  698.358
-170.082  114.252  698.358
-168.389  101.259  698.358
-163.705  89.0945  698.358
-158.818  76.5291  698.358
-153.004  64.379  698.358
-145.618  53.1624  698.358
-136.058  43.934  698.358
-124.439  37.2868  698.358
-111.607  33.391  698.358
-96.7047  28.6831  723.441
-80.6354  30.252  723.441
-64.8891  33.7849  723.441
-50.0615  40.1969  723.441
-36.4232  48.9716  723.441
-24.3285  59.8276  723.441
-14.1399  72.3831  723.441
-5.37978  85.9079  723.441
1.22318  100.44  723.441
4.77997  115.349  723.441
4.19845  126.74  723.441
1.57224  137.943  723.441
-2.83227  148.545  723.441
-8.96614  158.36  723.441
-16.7967  166.721  723.441
-25.8169  173.747  723.441
-35.5449  179.742  723.441
-46.0865  184.326  723.441
-57.2207  187.047  723.441
-68.7052  187.476  723.441
-82.2678  185.96  723.441
-95.8481  183.221  723.441
-109.304  179.592  723.441
-122.189  174.467  723.441
-134.504  168.245  723.441
-145.769  160.307  723.441
-155.428  150.419  723.441
-162.939  138.859  723.441
-167.717  125.834  723.441
-169.938  112.3  723.441
-166.957  99.4108  723.441
-162.552  86.6074  723.441
-158.036  73.7609  723.441
-151.954  61.6214  723.441
-144.551  50.2836  723.441
-134.709  41.0096  723.441
-122.987  34.1143  723.441
-110.123  30.0639  723.441
-96.4692  24.5108  748.524
-79.3481  26.3709  748.524
-62.676  30.7325  748.524
-46.9599  37.8152  748.524
-32.5849  47.5296  748.524
-19.9699  59.5104  748.524
-9.91481  73.4833  748.524
-1.44156  88.453  748.524
5.01041  104.272  748.524
7.38166  121.314  748.524
5.94241  133.359  748.524
2.17353  144.987  748.524
-3.5419  155.77  748.524
-11.1531  165.301  748.524
-20.353  173.154  748.524
-30.6203  179.644  748.524
-41.5555  184.948  748.524
-53.2346  187.997  748.524
-65.3439  188.856  748.524
-77.4232  188.609  748.524
-90.1715  186.152  748.524
-103.123  183.788  748.524
-115.707  179.763  748.524
-127.782  174.822  748.524
-138.979  168.216  748.524
-149.068  159.898  748.524
-157.731  150.048  748.524
-164.565  138.869  748.524
-169.211  126.568  748.524
-170.397  113.461  748.524
-168.11  99.9714  748.524
-163.715  86.8298  748.524
-158.748  73.6162  748.524
-152.578  60.9817  748.524
-144.562  49.3973  748.524
-134.751  39.4926  748.524
-123.232  31.5519  748.524
-110.341  26.0641  748.524
-93.6187  20.9692  773.608
-76.4681  23.7594  773.608
-59.9069  28.8606  773.608
-44.3146  36.4363  773.608
-29.8014  46.2971  773.608
-16.9655  58.024  773.608
-7.15233  72.5664  773.608
0.186329  87.8855  773.608
5.58563  102.687  773.608
8.41378  118.341  773.608
8.387  129.652  773.608
5.67712  140.575  773.608
1.3238  151.074  773.608
-5.04108  160.878  773.608
-12.8324  169.516  773.608
-21.759  176.776  773.608
-31.596  182.843  773.608
-41.8861  187.965  773.608
-52.8069  190.149  773.608
-63.9053  190.768  773.608
-76.7639  191.944  773.608
-90.7836  187.415  773.608
-106.979  185.464  773.608
-122.197  180.989  773.608
-136.746  174.106  773.608
-149.435  164.657  773.608
-159.973  152.886  773.608
-168.78  139.523  773.608
-173.289  124.255  773.608
-176.005  110.376  773.608
-172.073  98.0182  773.608
-167.333  85.1979  773.608
-163.13  70.5849  773.608
-155.614  57.5717  773.608
-146.398  45.8635  773.608
-135.484  35.6275  773.608
-122.697  27.8323  773.608
-108.457  23.0605  773.608
