-126.862000 92.848800 105.802000
-127.654000 97.849400 124.608000
-129.891000 93.311100 165.608000
-135.709000 92.078400 206.608000
-138.837000 82.801500 247.608000
-141.433000 76.331200 288.608000
-142.379000 69.092200 329.608000
-142.727000 67.233200 370.608000
-141.719000 66.420100 386.608000
-139.292000 67.155600 402.608000
-135.893000 65.799800 418.608000
-130.736000 64.234400 434.608000
-126.685000 60.538500 453.608000
-123.127000 54.285200 472.608000
-115.530000 48.453800 497.691000
-118.682000 46.382700 522.775000
-118.304000 45.834800 547.858000
-110.967000 45.315800 572.941000
-105.276000 44.409900 598.025000
-102.291000 41.980700 623.108000
-99.942200 38.883000 648.191000
-98.268700 35.028200 673.275000
-98.313700 32.008700 698.358000
-96.704700 28.683100 723.441000
-96.469200 24.510800 748.524000
s
-85.380300 135.318000 105.802000
-91.005500 134.083000 124.608000
-93.761300 137.527000 165.608000
-95.904500 139.761000 206.608000
-90.707400 141.681000 247.608000
-85.824700 136.912000 288.608000
-81.218700 139.734000 329.608000
-78.334300 137.327000 370.608000
-77.218000 134.915000 386.608000
-74.633400 131.975000 402.608000
-74.191200 130.036000 418.608000
-72.530800 127.376000 434.608000
-64.898600 122.109000 453.608000
-53.205400 118.214000 472.608000
-45.203000 117.826000 497.691000
-41.563600 113.404000 522.775000
-36.444600 111.096000 547.858000
-32.341600 111.658000 572.941000
-25.986700 113.351000 598.025000
-18.949100 115.252000 623.108000
-11.884200 116.214000 648.191000
-5.323110 121.521000 673.275000
1.141340 117.274000 698.358000
4.779970 115.349000 723.441000
7.381660 121.314000 748.524000
s
-126.391000 169.332000 105.802000
-127.383000 168.682000 124.608000
-127.998000 172.821000 165.608000
-134.241000 176.191000 206.608000
-138.171000 180.453000 247.608000
-137.842000 184.377000 288.608000
-145.454000 188.118000 329.608000
-142.727000 190.094000 370.608000
-143.797000 188.771000 386.608000
-142.333000 186.620000 402.608000
-139.974000 184.308000 418.608000
-137.832000 180.715000 434.608000
-131.663000 177.093000 453.608000
-124.738000 173.055000 472.608000
-118.412000 168.796000 497.691000
-109.935000 169.106000 522.775000
-107.068000 169.623000 547.858000
-96.519800 171.019000 572.941000
-90.502300 174.008000 598.025000
-86.873000 177.228000 623.108000
-72.284700 180.995000 648.191000
-68.284800 182.549000 673.275000
-66.732500 187.173000 698.358000
-68.705200 187.476000 723.441000
-77.423200 188.609000 748.524000
s
-185.456000 122.078000 105.802000
-182.146000 123.288000 124.608000
-181.756000 130.614000 165.608000
-185.670000 131.891000 206.608000
-189.727000 133.776000 247.608000
-194.808000 133.023000 288.608000
-201.564000 132.001000 329.608000
-203.200000 131.615000 370.608000
-207.374000 131.565000 386.608000
-197.184000 133.651000 402.608000
-193.905000 131.729000 418.608000
-190.560000 125.150000 434.608000
-183.950000 120.031000 453.608000
-177.399000 114.034000 472.608000
-172.458000 114.811000 497.691000
-168.421000 116.843000 522.775000
-164.804000 112.890000 547.858000
-163.216000 109.266000 572.941000
-164.820000 111.974000 598.025000
-170.485000 112.681000 623.108000
-172.410000 113.511000 648.191000
-171.391000 112.859000 673.275000
-170.082000 114.252000 698.358000
-169.938000 112.300000 723.441000
-170.397000 113.461000 748.524000
s
