-60.2773  111.344  30.5805
-44.6505  115.061  30.5805
-29.0194  118.76  30.5805
-13.3867  122.377  30.5805
2.07752  126.77  30.5805
16.9712  132.592  30.5805
31.5181  139.507  30.5805
45.0463  148.003  30.5805
56.4789  159.235  30.5805
63.0128  173.176  30.5805
58.7005  187.409  30.5805
52.0616  200.505  30.5805
41.2167  210.393  30.5805
27.9847  217.008  30.5805
13.9119  221.972  30.5805
-0.444679  225.462  30.5805
-15.0572  226.376  30.5805
-29.7353  224.055  30.5805
-44.4204  221.8  30.5805
-59.0332  219.235  30.5805
-75.9243  214.111  30.5805
-92.0269  206.839  30.5805
-107.778  198.823  30.5805
-123.56  190.845  30.5805
-139.24  182.718  30.5805
-155.045  174.777  30.5805
-170.765  166.673  30.5805
-185.326  156.85  30.5805
-197.166  143.722  30.5805
-201.273  126.992  30.5805
-194.624  111.575  30.5805
-179.362  104.512  30.5805
-162.202  101.293  30.5805
-145.145  98.7813  30.5805
-127.839  97.3754  30.5805
-110.873  98.89  30.5805
-94.0082  103.534  30.5805
-77.1431  107.282  30.5805
s
-61.1854  110.031  35.2819
-45.8371  114.431  35.2819
-30.5134  118.87  35.2819
-15.1511  123.246  35.2819
0.165137  127.743  35.2819
15.1838  133.027  35.2819
29.6769  139.834  35.2819
42.8205  148.739  35.2819
54.7026  159.432  35.2819
63.5787  172.157  35.2819
57.8713  185.626  35.2819
48.943  197.629  35.2819
38.0769  207.579  35.2819
25.0051  214.682  35.2819
11.2044  220.245  35.2819
-3.02216  224.696  35.2819
-17.5931  226.264  35.2819
-32.2957  223.768  35.2819
-47.0068  221.249  35.2819
-61.6219  218.397  35.2819
-77.9795  213.493  35.2819
-93.5223  206.377  35.2819
-108.724  198.534  35.2819
-123.942  190.733  35.2819
-139.104  182.818  35.2819
-154.349  175.067  35.2819
-169.478  167.085  35.2819
-183.741  157.731  35.2819
-195.886  145.713  35.2819
-202.662  130.246  35.2819
-197.772  113.343  35.2819
-183.08  104.777  35.2819
-165.333  101.086  35.2819
-148.086  97.2949  35.2819
-130.376  94.5073  35.2819
-112.973  96.3537  35.2819
-95.5809  100.442  35.2819
-78.3166  105.101  35.2819
s
-72.6786  106.435  49.386
-61.8168  110.149  49.386
-50.9747  113.896  49.386
-40.1116  117.608  49.386
-29.2332  121.294  49.386
-18.4516  125.143  49.386
-7.47436  128.662  49.386
3.20482  132.685  49.386
12.4662  139.109  49.386
20.8487  147.021  49.386
17.466  159.497  49.386
12.2702  171.258  49.386
4.66036  181.606  49.386
-4.71706  190.641  49.386
-14.5375  198.775  49.386
-24.8736  206.669  49.386
-36.1522  212.662  49.386
-48.4187  211.845  49.386
-61.037  208.622  49.386
-73.6125  205.747  49.386
-88.1506  200.282  49.386
-102.257  193.566  49.386
-116.438  187.05  49.386
-130.582  180.466  49.386
-144.667  173.73  49.386
-158.606  166.691  49.386
-172.079  158.858  49.386
-185.252  150.443  49.386
-196.902  140.166  49.386
-201.934  125.794  49.386
-195.633  111.412  49.386
-181.758  104.405  49.386
-165.995  101.228  49.386
-150.393  98.0871  49.386
-134.721  94.4847  49.386
-119.026  94.3694  49.386
-103.29  97.455  49.386
-87.7984  101.195  49.386
s
-102.856  100.743  68.1915
-93.8639  103.719  68.1915
-85.4741  108.059  68.1915
-77.3086  112.872  68.1915
-69.1003  117.593  68.1915
-60.9148  122.365  68.1915
-52.7215  127.116  68.1915
-44.5239  131.864  68.1915
-36.5304  136.939  68.1915
-28.6442  142.188  68.1915
-30.2602  151.601  68.1915
-34.2561  159.852  68.1915
-41.0079  166.561  68.1915
-48.32  172.456  68.1915
-56.9638  175.854  68.1915
-66.305  177.864  68.1915
-75.4945  179.848  68.1915
-84.9463  180.719  68.1915
-94.3931  181.064  68.1915
-103.764  179.864  68.1915
-114.712  177.826  68.1915
-125.645  175.556  68.1915
-136.401  172.719  68.1915
-146.549  168.152  68.1915
-156.405  162.911  68.1915
-165.785  156.956  68.1915
-174.5  149.98  68.1915
-182.991  142.755  68.1915
-190.8  134.815  68.1915
-194.117  124.469  68.1915
-189.349  114.27  68.1915
-180.294  107.412  68.1915
-169.552  103.607  68.1915
-158.322  101.265  68.1915
-147.159  98.6333  68.1915
-135.957  95.7617  68.1915
-124.821  94.4798  68.1915
-113.827  97.2688  68.1915
s
-122.504  93.5645  86.997
-114.132  95.7309  86.997
-105.933  98.4104  86.997
-98.0639  102.021  86.997
-91.0487  106.944  86.997
-85.3093  113.432  86.997
-79.5616  119.849  86.997
-76.2029  127.684  86.997
-73.8761  136.04  86.997
-73.3371  144.628  86.997
-74.1231  150.665  86.997
-77.5918  155.483  86.997
-82.4815  159.209  86.997
-87.632  162.379  86.997
-93.3016  164.627  86.997
-99.1909  166.208  86.997
-105.14  167.432  86.997
-111.143  168.521  86.997
-117.131  169.62  86.997
-123.124  170.716  86.997
-131.779  171.769  86.997
-140.378  171.27  86.997
-148.222  167.711  86.997
-155.611  163.068  86.997
-162.078  157.332  86.997
-167.75  150.731  86.997
-173.368  144.089  86.997
-178.948  137.432  86.997
-184.41  130.643  86.997
-187.763  122.833  86.997
-185.325  115.015  86.997
-178.897  109.569  86.997
-171.135  106.245  86.997
-163.043  103.79  86.997
-154.947  101.187  86.997
-146.868  98.5992  86.997
-138.777  96.1077  86.997
-130.699  93.3693  86.997
s
-126.862  92.8488  105.802
-119.721  94.6025  105.802
-112.641  96.6281  105.802
-105.778  99.2097  105.802
-99.5226  103.069  105.802
-93.9612  107.828  105.802
-89.9897  113.938  105.802
-87.5302  120.847  105.802
-85.8384  127.996  105.802
-85.3803  135.318  105.802
-86.1405  140.993  105.802
-88.1309  146.389  105.802
-91.2222  151.216  105.802
-95.2697  155.288  105.802
-99.7515  158.913  105.802
-104.656  161.884  105.802
-109.912  164.195  105.802
-115.365  166.06  105.802
-120.831  167.849  105.802
-126.391  169.332  105.802
-134.384  170.349  105.802
-142.055  168.222  105.802
-149.388  164.56  105.802
-156.402  160.467  105.802
-162.491  155.275  105.802
-167.503  148.797  105.802
-172.464  142.389  105.802
-177.39  135.936  105.802
-182.371  129.502  105.802
-185.456  122.078  105.802
-183.534  114.885  105.802
-177.899  109.704  105.802
-170.889  106.657  105.802
-163.526  104.483  105.802
-156.197  102.097  105.802
-148.863  99.8049  105.802
-141.529  97.4873  105.802
-134.196  95.1643  105.802
s
