-81.0455 -257.877 986.169
-81.0453 -257.877 986.169
-81.0452 -257.877 986.169
-81.045 -257.877 986.169
-18.6237 -227.718 986.169
-18.617 -227.714 986.169
-18.6293 -227.72 986.169
-18.622 -227.717 986.169
-18.6376 -227.724 986.169
-81.7038 -257.9 987.17
-81.7011 -257.899 987.17
-81.7 -257.899 987.17
-81.0519 -257.878 986.178
-81.0504 -257.878 986.176
-18.6347 -227.706 986.226
-18.639 -227.704 986.241
-18.6475 -227.701 986.266
-18.8042 -227.51 987.17
-18.8218 -227.518 987.17
-82.2986 -257.893 988.171
-82.3002 -257.894 988.171
-82.2995 -257.893 988.171
-81.7058 -257.898 987.181
-81.7051 -257.898 987.179
-18.8227 -227.5 987.234
-18.8287 -227.498 987.251
-18.8401 -227.495 987.279
-19.1737 -227.394 988.171
-19.1528 -227.383 988.171
-82.524 -257.707 989.172
-82.305 -257.888 988.198
-82.3035 -257.891 988.185
-82.3018 -257.892 988.181
-82.3008 -257.892 988.178
-19.1981 -227.387 988.232
-19.1966 -227.382 988.247
-19.5451 -227.278 989.172
-19.5375 -227.274 989.172
-19.5563 -227.284 989.172
-82.7962 -257.544 990.172
-82.7919 -257.542 990.172
-82.8191 -257.555 990.172
-82.3041 -257.89 988.19
-82.3026 -257.891 988.185
-19.5572 -227.275 989.204
-19.5556 -227.271 989.212
-19.8211 -227.117 990.172
-19.8181 -227.115 990.172
-19.8255 -227.119 990.172
-83.3016 -257.493 991.173
-83.2446 -257.466 991.173
-82.9321 -257.527 990.452
-82.9154 -257.54 990.381
-82.8844 -257.537 990.339
-19.8245 -227.115 990.185
-19.8254 -227.114 990.189
-19.8246 -227.112 990.195
-20.0814 -226.948 991.173
-20.0591 -226.937 991.173
-83.6882 -257.385 992.174
-83.6878 -257.385 992.174
-83.6879 -257.385 992.174
-83.6879 -257.385 992.174
-20.1013 -226.947 991.208
-20.0994 -226.944 991.217
-20.0968 -226.938 991.233
-20.2157 -226.718 992.174
-20.2319 -226.726 992.174
-83.8795 -257.183 993.175
-83.8691 -257.178 993.175
-83.6881 -257.385 992.175
-83.6881 -257.385 992.175
-83.688 -257.385 992.175
-20.227 -226.705 992.236
-20.2312 -226.702 992.252
-20.2275 -226.692 992.281
-20.2483 -226.439 993.175
-20.2743 -226.451 993.175
-84.179 -257.033 994.175
-84.1957 -257.041 994.175
-83.8838 -257.168 993.233
-83.8764 -257.169 993.218
-83.8718 -257.169 993.209
-20.2925 -226.431 993.274
-20.2919 -226.423 993.3
-20.2927 -226.41 993.345
-20.4335 -226.234 994.175
-20.4674 -226.25 994.175
-84.7321 -257.005 995.176
-84.7178 -256.998 995.176
-84.7211 -257 995.176
-84.7156 -256.997 995.176
-84.2201 -257.034 994.238
-20.5175 -226.238 994.297
-20.5233 -226.232 994.328
-20.5351 -226.223 994.379
-20.8538 -226.142 995.176
-20.8832 -226.156 995.176
-85.2825 -256.976 996.177
-85.2937 -256.982 996.177
-85.2968 -256.983 996.177
-84.748 -256.996 995.232
-84.743 -256.997 995.221
-20.9199 -226.142 995.284
-20.939 -226.143 995.312
-20.9518 -226.136 995.357
-21.3186 -226.071 996.177
-21.3467 -226.085 996.177
-85.4622 -256.768 997.178
-85.4873 -256.78 997.178
-85.3123 -256.967 996.255
-85.3025 -256.969 996.235
-85.3017 -256.972 996.222
-21.3506 -226.055 996.287
-21.3617 -226.051 996.317
-21.361 -226.035 996.369
-21.4633 -225.847 997.178
-21.5062 -225.867 997.178
-85.646 -256.562 998.178
-85.6845 -256.581 998.178
-85.5292 -256.749 997.353
-85.5223 -256.759 997.306
-85.5056 -256.759 997.279
-21.7864 -225.708 998.178
-21.7851 -225.707 998.178
-21.7853 -225.708 998.178
-21.7861 -225.708 998.178
-21.7823 -225.706 998.178
-86.1248 -256.499 999.179
-86.1233 -256.498 999.179
-86.1097 -256.492 999.179
-86.1112 -256.492 999.179
-86.1115 -256.492 999.179
-21.7901 -225.706 998.191
-21.7898 -225.705 998.195
-21.7923 -225.704 998.202
-21.7988 -225.702 998.219
-22.146 -225.587 999.179
-86.7504 -256.506 1000.18
-86.6929 -256.478 1000.18
-86.174 -256.485 999.307
-86.1578 -256.488 999.27
-86.1483 -256.49 999.249
-21.7928 -225.704 998.202
-22.6024 -225.513 1000.18
-22.5941 -225.509 1000.18
-22.589 -225.506 1000.18
-22.5763 -225.5 1000.18
-87.043 -256.353 1001.18
-87.0407 -256.352 1001.18
-87.0549 -256.359 1001.18
-87.0486 -256.356 1001.18
-87.0538 -256.358 1001.18
-22.6068 -225.503 1000.22
-22.6064 -225.499 1000.23
-22.5979 -225.489 1000.25
-22.5938 -225.471 1000.31
-22.456 -225.147 1001.18
-87.2312 -256.149 1002.18
-87.1234 -256.311 1001.45
-87.0885 -256.326 1001.35
-87.0719 -256.332 1001.3
-87.0726 -256.34 1001.27
-22.5411 -224.894 1002.18
-22.5423 -224.894 1002.18
-22.5369 -224.892 1002.18
-22.5398 -224.893 1002.18
-22.5256 -224.886 1002.18
-87.7757 -256.118 1003.18
-87.8143 -256.137 1003.18
-87.7963 -256.128 1003.18
-87.7853 -256.123 1003.18
-87.3458 -256.155 1002.35
-22.5596 -224.891 1002.22
-22.5654 -224.89 1002.23
-22.9861 -224.814 1003.18
-22.9869 -224.815 1003.18
-22.9828 -224.813 1003.18
-88.3201 -256.086 1004.18
-88.3515 -256.102 1004.18
-88.3368 -256.094 1004.18
-88.3454 -256.099 1004.18
-87.8722 -256.122 1003.32
-22.9944 -224.814 1003.2
-22.9951 -224.813 1003.2
-23.0001 -224.812 1003.21
-23.0082 -224.809 1003.24
-23.4304 -224.734 1004.18
-88.6035 -255.929 1005.18
-88.4212 -256.029 1004.54
-88.4047 -256.061 1004.41
-88.3765 -256.065 1004.34
-88.359 -256.067 1004.31
-22.9949 -224.811 1003.21
-23.4518 -224.45 1005.18
-23.4448 -224.447 1005.18
-23.4485 -224.448 1005.18
-23.4633 -224.456 1005.18
-88.7601 -255.71 1006.18
-88.7774 -255.718 1006.18
-88.7693 -255.714 1006.18
-88.774 -255.716 1006.18
-88.7685 -255.714 1006.18
-23.45 -224.432 1005.24
-23.4516 -224.427 1005.26
-23.4433 -224.415 1005.29
-23.4381 -224.149 1006.18
-23.3932 -224.127 1006.18
-89.1553 -255.603 1007.19
-89.1536 -255.602 1007.19
-89.154 -255.603 1007.19
-89.1533 -255.602 1007.19
-23.6389 -223.948 1007.19
-23.6322 -223.945 1007.19
-23.6374 -223.948 1007.19
-23.6275 -223.943 1007.19
-23.6483 -223.953 1007.19
-89.6827 -255.563 1008.19
-89.1624 -255.601 1007.21
-89.1593 -255.602 1007.2
-89.157 -255.602 1007.2
-89.1564 -255.602 1007.2
-23.9699 -223.814 1008.19
-23.9696 -223.814 1008.19
-23.9698 -223.814 1008.19
-23.9688 -223.813 1008.19
-89.8842 -255.366 1009.19
-89.8797 -255.364 1009.19
-89.7501 -255.526 1008.43
-89.727 -255.533 1008.36
-89.1579 -255.601 1007.2
-23.9708 -223.813 1008.19
-23.9711 -223.813 1008.19
-23.9711 -223.813 1008.2
-24.2679 -223.663 1009.19
-24.2556 -223.657 1009.19
-90.0487 -255.151 1010.19
-90.0545 -255.154 1010.19
-90.0518 -255.153 1010.19
-90.0501 -255.152 1010.19
-24.2789 -223.657 1009.23
-24.2828 -223.656 1009.24
-24.2823 -223.65 1009.26
-24.2952 -223.644 1009.3
-24.543 -223.501 1010.19
-90.6774 -255.16 1011.19
-90.1091 -255.152 1010.29
-90.0805 -255.151 1010.24
-90.0697 -255.151 1010.22
-90.0669 -255.152 1010.22
-24.5583 -223.483 1010.28
-24.5824 -223.488 1010.3
-24.5902 -223.482 1010.33
-25.0535 -223.453 1011.19
-25.0694 -223.461 1011.19
-91.1557 -255.097 1012.19
-91.1934 -255.115 1012.19
-91.1758 -255.106 1012.19
-91.186 -255.111 1012.19
-90.0837 -255.153 1010.24
-25.1001 -223.455 1011.26
-25.672 -223.458 1012.19
-25.6727 -223.458 1012.19
-25.6752 -223.459 1012.19
-91.2945 -254.869 1013.19
-91.346 -254.894 1013.19
-91.2142 -255.047 1012.45
-91.215 -255.068 1012.38
-91.2138 -255.08 1012.34
-25.6729 -223.455 1012.2
-25.6746 -223.455 1012.2
-25.6759 -223.454 1012.21
-25.7795 -223.215 1013.19
-25.7965 -223.223 1013.19
-91.4005 -254.626 1014.19
-91.4149 -254.633 1014.19
-91.4188 -254.635 1014.19
-91.4201 -254.635 1014.19
-91.4139 -254.632 1014.19
-25.7866 -223.199 1013.26
-25.7898 -223.195 1013.28
-25.7971 -223.189 1013.31
-25.8522 -222.956 1014.19
-25.8856 -222.972 1014.19
-91.9398 -254.592 1015.19
-91.9514 -254.597 1015.19
-91.946 -254.595 1015.19
-91.4484 -254.629 1014.26
-91.443 -254.63 1014.24
-25.8949 -222.94 1014.31
-25.8902 -222.929 1014.34
-25.9084 -222.923 1014.39
-26.1651 -222.812 1015.19
-26.1274 -222.794 1015.19
-92.5737 -254.604 1016.19
-92.5733 -254.603 1016.19
-92.5755 -254.604 1016.19
-92.5745 -254.604 1016.19
-26.2276 -222.81 1015.3
-26.2293 -222.803 1015.33
-26.6971 -222.775 1016.19
-26.7024 -222.777 1016.19
-26.6761 -222.765 1016.19
-92.8626 -254.449 1017.19
-92.8502 -254.443 1017.19
-92.5815 -254.601 1016.21
-92.5809 -254.602 1016.21
-92.5789 -254.602 1016.2
-26.7256 -222.764 1016.27
-26.7214 -222.756 1016.29
-26.732 -222.75 1016.33
-26.954 -222.604 1017.19
-26.9187 -222.587 1017.19
-93.0682 -254.253 1018.19
-93.0409 -254.24 1018.19
-92.8585 -254.426 1017.26
-92.858 -254.431 1017.24
-92.8525 -254.432 1017.23
-26.9875 -222.588 1017.3
-26.9989 -222.584 1017.33
-27.021 -222.579 1017.38
-27.2237 -222.44 1018.19
-27.2648 -222.46 1018.19
-93.6035 -254.217 1019.19
-93.6144 -254.223 1019.19
-93.6093 -254.22 1019.19
-93.6062 -254.219 1019.19
-27.284 -222.426 1018.34
-27.5931 -222.324 1019.19
-27.5949 -222.325 1019.19
-27.5703 -222.313 1019.19
-27.5667 -222.311 1019.19
-94.168 -254.196 1020.19
-94.164 -254.194 1020.19
-93.6628 -254.221 1019.28
-93.6513 -254.223 1019.25
-93.6391 -254.221 1019.24
-28.0016 -222.227 1020.19
-28.0008 -222.226 1020.19
-28.0001 -222.226 1020.19
-27.9993 -222.226 1020.19
-94.4078 -254.014 1021.2
-94.3528 -253.987 1021.2
-94.1927 -254.128 1020.46
-94.1803 -254.142 1020.39
-93.6507 -254.212 1019.29
-28.0073 -222.223 1020.21
-28.0044 -222.219 1020.22
-27.9756 -221.917 1021.2
-27.974 -221.916 1021.2
-27.9724 -221.915 1021.2
-94.3838 -253.708 1022.2
-94.3827 -253.707 1022.2
-94.3732 -253.703 1022.2
-94.3742 -253.703 1022.2
-94.3693 -253.701 1022.2
-27.99 -221.909 1021.25
-27.9842 -221.902 1021.26
-27.9749 -221.89 1021.29
-27.9639 -221.616 1022.2
-27.9598 -221.614 1022.2
-94.7445 -253.587 1023.2
-94.7429 -253.587 1023.2
-94.4084 -253.698 1022.27
-94.394 -253.696 1022.26
-94.3901 -253.698 1022.24
-28.0438 -221.62 1022.32
-28.0403 -221.609 1022.35
-28.0366 -221.591 1022.41
-28.2975 -221.483 1023.2
-28.2927 -221.481 1023.2
-95.3758 -253.598 1024.2
-95.3591 -253.59 1024.2
-95.3628 -253.592 1024.2
-95.3641 -253.592 1024.2
-94.7628 -253.578 1023.26
-28.4143 -221.499 1023.34
-28.4164 -221.49 1023.37
-28.4487 -221.489 1023.43
-28.8282 -221.445 1024.2
-28.8238 -221.443 1024.2
-95.7479 -253.483 1025.2
-95.7732 -253.495 1025.2
-95.3915 -253.577 1024.3
-95.3852 -253.582 1024.27
-95.3746 -253.581 1024.26
-28.9201 -221.45 1024.33
-28.9181 -221.439 1024.37
-28.9436 -221.433 1024.43
-29.0022 -221.423 1024.56
-29.2927 -221.375 1025.2
-95.9843 -253.303 1026.2
-95.8197 -253.43 1025.5
-95.7885 -253.448 1025.38
-95.7886 -253.463 1025.33
-95.7754 -253.465 1025.3
-29.4056 -221.135 1026.2
-29.4015 -221.133 1026.2
-29.4047 -221.134 1026.2
-29.4124 -221.138 1026.2
-29.4111 -221.137 1026.2
-96.4082 -253.213 1027.2
-96.4043 -253.211 1027.2
-96.3708 -253.195 1027.2
-96.0117 -253.254 1026.41
-95.9994 -253.26 1026.37
-29.4202 -221.125 1026.26
-29.7239 -220.994 1027.2
-29.7258 -220.995 1027.2
-29.7334 -220.998 1027.2
-97.0868 -253.246 1028.2
-97.1041 -253.255 1028.2
-97.1087 -253.257 1028.2
-97.1006 -253.253 1028.2
-97.095 -253.25 1028.2
-29.7423 -220.993 1027.23
-29.7483 -220.993 1027.24
-29.7531 -220.991 1027.26
-29.7774 -220.99 1027.3
-30.2906 -220.973 1028.2
-97.4481 -253.126 1029.2
-97.4627 -253.133 1029.2
-97.4667 -253.135 1029.2
-97.1299 -253.243 1028.28
-97.1187 -253.242 1028.27
-29.75 -220.988 1027.26
-29.7534 -220.984 1027.28
-30.3281 -220.924 1028.43
-30.5411 -220.799 1029.2
-30.5375 -220.798 1029.2
-97.5643 -252.888 1030.2
-97.5933 -252.902 1030.2
-97.4686 -253.106 1029.3
-97.4694 -253.114 1029.27
-97.4624 -253.116 1029.26
-30.5193 -220.749 1029.34
-30.5063 -220.731 1029.37
-30.5418 -220.729 1029.44
-30.58 -220.706 1029.58
-30.7555 -220.609 1030.2
-97.9443 -252.777 1031.2
-97.9724 -252.79 1031.2
-97.9592 -252.784 1031.2
-97.64 -252.884 1030.34
-97.6203 -252.882 1030.31
-30.7612 -220.558 1030.38
-30.7784 -220.552 1030.43
-30.8112 -220.545 1030.51
-31.0884 -220.475 1031.2
-31.1365 -220.498 1031.2
-98.5756 -252.787 1032.2
-98.588 -252.793 1032.2
-98.5822 -252.79 1032.2
-98.5855 -252.792 1032.2
-31.2064 -220.482 1031.37
-31.2376 -220.485 1031.41
-31.8629 -220.554 1032.2
-31.8708 -220.558 1032.2
-31.9021 -220.573 1032.2
-99.0398 -252.717 1033.2
-99.021 -252.708 1033.2
-98.6169 -252.783 1032.28
-98.6115 -252.787 1032.26
-98.6023 -252.786 1032.25
-31.9383 -220.556 1032.32
-31.9582 -220.557 1032.35
-31.9942 -220.559 1032.4
-32.5296 -220.582 1033.2
-32.4879 -220.562 1033.2
-99.338 -252.563 1034.21
-99.0666 -252.673 1033.39
-99.0538 -252.689 1033.32
-99.0376 -252.691 1033.28
-99.0278 -252.692 1033.27
-32.8672 -220.448 1034.21
-32.8675 -220.448 1034.21
-32.8687 -220.448 1034.21
-32.863 -220.445 1034.21
-99.8367 -252.51 1035.21
-99.832 -252.508 1035.21
-99.4574 -252.546 1034.47
-99.443 -252.558 1034.4
-99.4152 -252.556 1034.36
-32.8738 -220.446 1034.23
-32.8754 -220.445 1034.23
-32.8752 -220.443 1034.24
-33.2419 -220.334 1035.21
-33.2296 -220.328 1035.21
-100.427 -252.501 1036.21
-100.455 -252.514 1036.21
-100.442 -252.508 1036.21
-100.434 -252.504 1036.21
-100.44 -252.507 1036.21
-33.2659 -220.333 1035.25
-33.2748 -220.333 1035.27
-33.2924 -220.335 1035.29
-33.3214 -220.331 1035.35
-33.8597 -220.338 1036.21
-100.854 -252.412 1037.21
-100.88 -252.425 1037.21
-100.868 -252.419 1037.21
-100.489 -252.492 1036.34
-100.485 -252.498 1036.31
-33.2891 -220.332 1035.3
-33.9624 -220.326 1036.42
-33.9877 -220.318 1036.49
-34.4098 -220.309 1037.21
-34.4054 -220.307 1037.21
-101.043 -252.209 1038.21
-100.909 -252.348 1037.52
-100.884 -252.37 1037.4
-100.887 -252.388 1037.35
-100.875 -252.391 1037.32
-34.5671 -220.09 1038.21
-34.5631 -220.089 1038.21
-34.5662 -220.09 1038.21
-34.574 -220.094 1038.21
-34.5727 -220.093 1038.21
-101.378 -252.076 1039.21
-101.43 -252.101 1039.21
-101.172 -252.18 1038.52
-101.132 -252.184 1038.44
-101.127 -252.195 1038.39
-34.5718 -220.079 1038.26
-34.5757 -220.077 1038.27
-34.574 -220.07 1038.29
-34.7684 -219.893 1039.21
-34.7863 -219.902 1039.21
-101.954 -252.06 1040.21
-101.984 -252.074 1040.21
-101.97 -252.067 1040.21
-101.961 -252.063 1040.21
-101.968 -252.067 1040.21
-34.819 -219.895 1039.29
-34.8253 -219.892 1039.31
-34.8385 -219.886 1039.35
-34.9001 -219.887 1039.45
-35.2658 -219.839 1040.21
-102.41 -251.986 1041.21
-102.436 -251.998 1041.21
-102.423 -251.992 1041.21
-102.025 -252.053 1040.35
-102.019 -252.058 1040.32
-34.8526 -219.89 1039.36
-35.3562 -219.818 1040.43
-35.3763 -219.806 1040.5
-35.731 -219.769 1041.21
-35.7265 -219.767 1041.21
-102.644 -251.804 1042.21
-102.644 -251.804 1042.21
-102.646 -251.805 1042.21
-102.645 -251.805 1042.21
-36.0502 -219.629 1042.21
-36.0458 -219.627 1042.21
-36.0397 -219.624 1042.21
-36.0528 -219.63 1042.21
-36.0506 -219.629 1042.21
-103.103 -251.731 1043.21
-103.086 -251.723 1043.21
-102.652 -251.804 1042.22
-102.651 -251.804 1042.22
-102.649 -251.804 1042.22
-36.0657 -219.612 1042.29
-36.077 -219.611 1042.31
-36.0819 -219.602 1042.35
-36.0949 -219.584 1042.43
-36.3528 -219.48 1043.21
-103.845 -251.795 1044.21
-103.844 -251.795 1044.21
-103.843 -251.794 1044.21
-103.846 -251.796 1044.21
-36.4189 -219.476 1043.33
-36.4459 -219.481 1043.36
-37.0024 -219.5 1044.21
-36.9903 -219.494 1044.21
-37.0156 -219.506 1044.21
-104.352 -251.746 1045.21
-104.351 -251.745 1045.21
-103.864 -251.792 1044.25
-103.862 -251.794 1044.24
-37.0524 -219.496 1044.31
-37.0704 -219.497 1044.33
-37.0837 -219.492 1044.37
-37.6123 -219.5 1045.21
-37.5795 -219.484 1045.21
-104.382 -251.465 1046.21
-104.354 -251.718 1045.31
-104.359 -251.731 1045.27
-104.36 -251.737 1045.25
-104.357 -251.738 1045.24
-37.6524 -219.487 1045.32
-37.65 -219.476 1045.35
-37.6709 -219.469 1045.41
-37.6851 -219.437 1045.54
-37.8862 -219.338 1046.21
-104.737 -251.342 1047.21
-104.683 -251.317 1047.21
-104.457 -251.437 1046.43
-104.451 -251.451 1046.37
-104.431 -251.451 1046.34
-38.1187 -219.155 1047.21
-38.1119 -219.152 1047.21
-38.1104 -219.151 1047.21
-38.1088 -219.15 1047.21
-38.1073 -219.15 1047.21
-105.275 -251.305 1048.22
-105.247 -251.291 1048.22
-105.236 -251.286 1048.22
-105.242 -251.289 1048.22
-105.235 -251.285 1048.22
-38.1452 -219.153 1047.26
-38.1539 -219.152 1047.28
-38.1709 -219.152 1047.31
-38.2141 -219.152 1047.38
-38.7321 -219.154 1048.22
-105.751 -251.241 1049.22
-105.737 -251.234 1049.22
-105.731 -251.231 1049.22
-105.735 -251.232 1049.22
-38.17 -219.151 1047.31
-38.7973 -219.13 1048.41
-39.2026 -219.087 1049.22
-39.2104 -219.091 1049.22
-39.2413 -219.106 1049.22
-105.945 -251.039 1050.22
-105.756 -251.199 1049.37
-105.752 -251.214 1049.31
-105.743 -251.217 1049.28
-105.737 -251.218 1049.27
-39.6757 -219.021 1050.22
-39.6743 -219.02 1050.22
-39.6764 -219.021 1050.22
-39.6737 -219.02 1050.22
-106.245 -250.89 1051.22
-106.06 -250.978 1050.62
-106.041 -251.012 1050.47
-106.009 -251.017 1050.4
-105.99 -251.018 1050.36
-39.6812 -219.021 1050.23
-39.6827 -219.021 1050.23
-39.6837 -219.02 1050.24
-39.6892 -219.02 1050.25
-40.2814 -219.019 1051.22
-106.888 -250.906 1052.22
-106.927 -250.925 1052.22
-106.909 -250.916 1052.22
-106.919 -250.921 1052.22
-106.906 -250.915 1052.22
-40.3628 -219.034 1051.3
-40.9618 -219.053 1052.22
-40.9567 -219.051 1052.22
-40.956 -219.05 1052.22
-107.536 -250.924 1053.22
-107.495 -250.904 1053.22
-107.504 -250.909 1053.22
-107.024 -250.917 1052.4
-107.008 -250.92 1052.37
-40.9805 -219.054 1052.25
-40.9872 -219.055 1052.26
-41.6608 -219.096 1053.22
-41.6612 -219.096 1053.22
-107.789 -250.752 1054.22
-107.803 -250.759 1054.22
-107.796 -250.755 1054.22
-107.8 -250.757 1054.22
-107.795 -250.755 1054.22
-41.6613 -219.096 1053.22
-41.6616 -219.096 1053.22
-41.662 -219.096 1053.22
-41.6625 -219.095 1053.23
-41.8989 -218.917 1054.22
-108.063 -250.59 1055.22
-107.858 -250.732 1054.4
-107.828 -250.739 1054.33
-107.823 -250.746 1054.3
-107.813 -250.746 1054.28
-41.6623 -219.096 1053.22
-42.3564 -218.843 1055.22
-42.3533 -218.842 1055.22
-42.3602 -218.845 1055.22
-42.3591 -218.844 1055.22
-108.847 -250.674 1056.22
-108.804 -250.653 1056.22
-108.813 -250.658 1056.22
-108.817 -250.659 1056.22
-107.861 -250.752 1054.34
-42.3922 -218.848 1055.26
-42.3983 -218.848 1055.27
-43.1778 -218.945 1056.22
-43.1811 -218.947 1056.22
-43.1806 -218.947 1056.22
-109.585 -250.736 1057.22
-109.653 -250.769 1057.22
-109.649 -250.767 1057.22
-108.926 -250.663 1056.39
-108.905 -250.662 1056.36
-43.1956 -218.947 1056.24
-43.7226 -218.914 1057.22
-43.7229 -218.914 1057.22
-43.7242 -218.915 1057.22
-109.743 -250.518 1058.22
-109.835 -250.562 1058.22
-109.69 -250.721 1057.44
-109.694 -250.741 1057.38
-109.696 -250.752 1057.35
-43.7234 -218.913 1057.23
-43.723 -218.912 1057.23
-43.7233 -218.912 1057.23
-43.9043 -218.707 1058.22
-43.9029 -218.707 1058.22
-110.093 -250.392 1059.22
-110.088 -250.39 1059.22
-109.938 -250.526 1058.51
-109.905 -250.533 1058.44
-109.905 -250.545 1058.39
-43.9277 -218.703 1058.27
-43.9238 -218.697 1058.29
-43.9283 -218.693 1058.31
-44.0643 -218.49 1059.22
-44.0395 -218.478 1059.22
-110.578 -250.332 1060.22
-110.574 -250.33 1060.22
-110.6 -250.343 1060.22
-110.588 -250.337 1060.22
-110.207 -250.392 1059.41
-44.4288 -218.372 1060.22
-44.4253 -218.37 1060.22
-44.4283 -218.371 1060.22
-44.4355 -218.375 1060.22
-44.4345 -218.374 1060.22
-111.057 -250.266 1061.23
-111.054 -250.264 1061.23
-111.075 -250.275 1061.23
-110.68 -250.324 1060.41
-110.672 -250.331 1060.38
-44.4479 -218.369 1060.26
-45.0083 -218.354 1061.23
-45.0085 -218.354 1061.23
-45.0092 -218.354 1061.23
-45.006 -218.353 1061.23
-111.202 -250.041 1062.23
-111.201 -250.041 1062.23
-111.195 -250.038 1062.23
-111.196 -250.039 1062.23
-45.0125 -218.353 1061.24
-45.0138 -218.352 1061.24
-45.0163 -218.352 1061.25
-45.0186 -218.349 1061.26
-45.3654 -218.232 1062.23
-111.434 -249.859 1063.23
-111.217 -250.023 1062.32
-111.204 -250.027 1062.28
-111.202 -250.031 1062.27
-111.197 -250.031 1062.26
-45.851 -218.172 1063.23
-45.851 -218.172 1063.23
-45.8477 -218.17 1063.23
-45.8472 -218.17 1063.23
-45.8467 -218.17 1063.23
-112.076 -249.875 1064.23
-112.037 -249.856 1064.23
-112.046 -249.86 1064.23
-111.548 -249.869 1063.39
-111.217 -250.032 1062.29
-45.8642 -218.173 1063.25
-45.8676 -218.173 1063.25
-46.6502 -218.264 1064.23
-46.6556 -218.266 1064.23
-46.6491 -218.263 1064.23
-112.647 -249.856 1065.23
-112.608 -249.837 1065.23
-112.617 -249.841 1065.23
-112.119 -249.85 1064.39
-112.105 -249.852 1064.35
-46.6653 -218.265 1064.25
-46.6714 -218.266 1064.26
-47.6804 -218.467 1065.23
-47.6776 -218.465 1065.23
-47.6836 -218.468 1065.23
-112.765 -249.619 1066.23
-112.812 -249.641 1066.23
-112.638 -249.785 1065.46
-112.635 -249.801 1065.4
-112.632 -249.81 1065.36
-47.688 -218.463 1065.25
-47.6915 -218.463 1065.26
-47.6882 -218.458 1065.27
-47.7628 -218.212 1066.23
-47.8074 -218.234 1066.23
-112.941 -249.409 1067.23
-112.949 -249.413 1067.23
-112.952 -249.414 1067.23
-112.948 -249.412 1067.23
-47.7847 -218.198 1066.31
-47.7992 -218.198 1066.34
-47.8091 -218.191 1066.38
-47.9851 -218.025 1067.23
-48.0225 -218.043 1067.23
-113.471 -249.37 1068.23
-113.458 -249.364 1068.23
-112.98 -249.411 1067.29
-112.974 -249.412 1067.27
-112.962 -249.409 1067.26
-48.0592 -218.019 1067.37
-48.0617 -218.01 1067.41
-48.4843 -217.971 1068.23
-48.4951 -217.977 1068.23
-48.4478 -217.954 1068.23
-114.09 -249.375 1069.23
-114.103 -249.381 1069.23
-113.499 -249.363 1068.3
-113.49 -249.364 1068.28
-113.48 -249.362 1068.27
-48.5775 -217.972 1068.38
-48.6031 -217.973 1068.42
-49.0441 -217.947 1069.23
-49.025 -217.938 1069.23
-49.0672 -217.958 1069.23
-114.289 -249.177 1070.23
-114.316 -249.189 1070.23
-114.115 -249.361 1069.32
-114.114 -249.367 1069.3
-114.107 -249.368 1069.28
-49.3019 -217.777 1070.23
-49.3025 -217.778 1070.23
-49.3036 -217.778 1070.23
-49.3017 -217.777 1070.23
-49.3059 -217.779 1070.23
-114.429 -248.949 1071.23
-114.378 -248.925 1071.23
-114.336 -249.144 1070.42
-114.319 -249.15 1070.37
-114.308 -249.154 1070.34
-49.309 -217.776 1070.25
-49.3141 -217.777 1070.25
-49.3233 -217.779 1070.26
-50.164 -217.899 1071.23
-50.1618 -217.898 1071.23
-114.934 -248.899 1072.23
-114.875 -248.87 1072.23
-114.529 -248.915 1071.51
-114.473 -248.909 1071.44
-114.438 -248.905 1071.4
-50.1941 -217.888 1071.32
-50.2107 -217.889 1071.34
-50.241 -217.892 1071.38
-50.6579 -217.843 1072.23
-50.6549 -217.842 1072.23
-115.368 -248.814 1073.23
-115.364 -248.812 1073.23
-115.362 -248.811 1073.23
-115.363 -248.812 1073.23
-50.7178 -217.837 1072.35
-50.7633 -217.85 1072.38
-50.7956 -217.849 1072.44
-51.3137 -217.866 1073.23
-51.3101 -217.864 1073.23
-115.53 -248.595 1074.24
-115.528 -248.594 1074.24
-115.366 -248.806 1073.25
-115.364 -248.807 1073.25
-115.363 -248.807 1073.24
-51.3371 -217.84 1073.36
-51.3351 -217.831 1073.38
-51.3557 -217.829 1073.42
-51.3644 -217.812 1073.49
-51.6076 -217.71 1074.24
-51.6028 -217.708 1074.24
-115.449 -248.261 1075.24
-115.446 -248.26 1075.24
-115.536 -248.569 1074.34
-115.532 -248.575 1074.31
-115.536 -248.581 1074.3
-51.9384 -217.575 1075.24
-51.936 -217.574 1075.24
-51.9328 -217.573 1075.24
-51.94 -217.576 1075.24
-51.9389 -217.576 1075.24
-115.934 -248.201 1076.24
-115.931 -248.199 1076.24
-115.506 -248.239 1075.41
-115.473 -248.235 1075.37
-115.464 -248.238 1075.34
-51.9495 -217.568 1075.28
-51.9562 -217.568 1075.29
-51.9598 -217.564 1075.31
-52.3071 -217.459 1076.24
-52.3058 -217.458 1076.24
-116.559 -248.208 1077.24
-116.588 -248.222 1077.24
-116.012 -248.184 1076.42
-115.988 -248.186 1076.38
-115.96 -248.181 1076.35
-52.3346 -217.457 1076.29
-52.3468 -217.459 1076.3
-52.9855 -217.492 1077.24
-52.9788 -217.489 1077.24
-52.9932 -217.496 1077.24
-116.747 -248.004 1078.24
-116.792 -248.026 1078.24
-116.614 -248.175 1077.44
-116.595 -248.182 1077.39
-116.582 -248.185 1077.36
-53.0043 -217.484 1077.3
-53.0043 -217.479 1077.31
-53.0172 -217.477 1077.34
-53.1986 -217.3 1078.24
-53.2649 -217.332 1078.24
-116.823 -247.746 1079.24
-116.821 -247.746 1079.24
-116.82 -247.745 1079.24
-116.825 -247.748 1079.24
-116.823 -247.746 1079.24
-53.5217 -217.162 1079.24
-53.5214 -217.162 1079.24
-53.5209 -217.162 1079.24
-53.5236 -217.163 1079.24
-53.5217 -217.162 1079.24
-117.186 -247.628 1080.24
-117.185 -247.627 1080.24
-116.847 -247.736 1079.31
-116.845 -247.741 1079.29
-116.834 -247.739 1079.28
-53.5232 -217.161 1079.25
-53.5232 -217.161 1079.25
-53.5246 -217.16 1079.25
-53.8916 -217.046 1080.24
-53.8911 -217.046 1080.24
-117.535 -247.501 1081.24
-117.533 -247.501 1081.24
-117.228 -247.619 1080.34
-117.215 -247.62 1080.31
-117.2 -247.617 1080.3
-53.901 -217.044 1080.26
-53.9055 -217.045 1080.27
-53.9093 -217.044 1080.28
-54.5792 -217.084 1081.24
-54.5724 -217.08 1081.24
-117.617 -247.247 1082.24
-117.647 -247.261 1082.24
-117.552 -247.48 1081.34
-117.536 -247.48 1081.31
-117.533 -247.483 1081.3
-54.5871 -217.081 1081.26
-54.5898 -217.08 1081.27
-54.5904 -217.077 1081.28
-54.8973 -216.943 1082.24
-54.8718 -216.931 1082.24
-117.703 -246.993 1083.24
-117.642 -246.964 1083.24
-117.604 -247.177 1082.46
-117.621 -247.203 1082.4
-117.601 -247.202 1082.36
-54.9385 -216.941 1082.31
-54.9384 -216.936 1082.33
-54.9526 -216.935 1082.36
-54.9613 -216.926 1082.4
-55.271 -216.829 1083.24
-55.2667 -216.827 1083.24
-118.073 -246.877 1084.24
-118.077 -246.879 1084.24
-118.072 -246.877 1084.24
-118.071 -246.877 1084.24
-118.071 -246.876 1084.24
-55.5255 -216.657 1084.24
-55.5256 -216.657 1084.24
-55.5257 -216.657 1084.24
-55.5257 -216.657 1084.24
-55.5262 -216.658 1084.24
-118.563 -246.82 1085.24
-118.562 -246.819 1085.24
-118.084 -246.875 1084.27
-118.081 -246.876 1084.26
-118.078 -246.876 1084.26
-55.526 -216.657 1084.24
-55.5262 -216.657 1084.24
-56.0178 -216.6 1085.24
-56.0177 -216.6 1085.24
-56.0203 -216.602 1085.24
-118.641 -246.563 1086.24
-118.614 -246.55 1086.24
-118.563 -246.809 1085.28
-118.565 -246.813 1085.27
-118.564 -246.814 1085.26
-56.0184 -216.599 1085.24
-56.0191 -216.599 1085.25
-56.0204 -216.599 1085.25
-56.2876 -216.436 1086.24
-56.3069 -216.446 1086.24
-118.429 -246.166 1087.24
-118.424 -246.163 1087.24
-118.558 -246.472 1086.41
-118.563 -246.489 1086.36
-118.576 -246.503 1086.34
-56.3094 -216.427 1086.31
-56.3151 -216.425 1086.32
-56.3255 -216.423 1086.35
-56.3287 -216.411 1086.39
-56.3692 -216.398 1086.5
-56.5346 -216.261 1087.24
-118.726 -246.012 1088.25
-118.721 -246.009 1088.25
-118.51 -246.114 1087.55
-118.483 -246.123 1087.47
-118.464 -246.127 1087.43
-118.589 -246.491 1086.4
-56.3448 -216.423 1086.38
-56.586 -216.231 1087.42
-56.5898 -216.22 1087.47
-56.9178 -216.149 1088.25
-56.9482 -216.163 1088.25
-56.9436 -216.161 1088.25
-119.163 -245.928 1089.25
-119.195 -245.944 1089.25
-119.203 -245.948 1089.25
-119.205 -245.949 1089.25
-118.774 -245.984 1088.42
-57.4202 -216.097 1089.25
-57.4141 -216.094 1089.25
-57.4498 -216.111 1089.25
-57.4584 -216.115 1089.25
-57.4903 -216.131 1089.25
-119.291 -245.695 1090.25
-119.242 -245.672 1090.25
-119.213 -245.891 1089.46
-119.213 -245.907 1089.4
-119.226 -245.923 1089.37
-57.4552 -216.085 1089.35
-57.4563 -216.079 1089.37
-57.4948 -216.087 1089.4
-57.5153 -216.081 1089.46
-57.8438 -216.007 1090.25
-57.7518 -215.962 1090.25
-119.081 -245.3 1091.25
-119.095 -245.306 1091.25
-119.109 -245.313 1091.25
-119.107 -245.312 1091.25
-119.106 -245.312 1091.25
-57.9339 -215.756 1091.25
-57.9472 -215.762 1091.25
-57.9456 -215.761 1091.25
-57.944 -215.761 1091.25
-57.9423 -215.76 1091.25
-119.21 -245.067 1092.25
-119.256 -245.089 1092.25
-119.122 -245.293 1091.34
-119.117 -245.298 1091.32
-119.114 -245.3 1091.3
-57.9603 -215.748 1091.32
-57.9616 -215.743 1091.34
-57.965 -215.736 1091.37
-58.1912 -215.586 1092.25
-58.2175 -215.598 1092.25
-119.569 -244.946 1093.25
-119.567 -244.945 1093.25
-119.566 -244.945 1093.25
-119.281 -245.073 1092.35
-119.273 -245.075 1092.33
-58.2565 -215.588 1092.35
-58.5088 -215.444 1093.25
-58.5036 -215.442 1093.25
-58.5155 -215.448 1093.25
-58.5137 -215.447 1093.25
-119.724 -244.726 1094.25
-119.721 -244.725 1094.25
-119.58 -244.925 1093.34
-119.567 -244.925 1093.32
-119.565 -244.928 1093.3
-58.5338 -215.434 1093.33
-58.5354 -215.429 1093.35
-58.5393 -215.421 1093.38
-58.6862 -215.236 1094.25
-58.7444 -215.264 1094.25
-119.74 -244.439 1095.25
-119.735 -244.437 1095.25
-119.721 -244.68 1094.4
-119.705 -244.684 1094.36
-119.705 -244.691 1094.34
-119.704 -244.696 1094.32
-58.7126 -215.221 1094.34
-58.7009 -215.21 1094.36
-58.7002 -215.2 1094.39
-58.7239 -215.194 1094.45
-58.7991 -214.995 1095.25
-58.8501 -215.02 1095.25
-119.908 -244.226 1096.25
-119.958 -244.25 1096.25
-119.774 -244.375 1095.53
-119.759 -244.388 1095.45
-119.748 -244.395 1095.41
-119.722 -244.391 1095.39
-58.9174 -214.758 1096.25
-58.917 -214.758 1096.25
-58.9166 -214.758 1096.25
-58.9162 -214.757 1096.25
-58.9158 -214.757 1096.25
-120.229 -244.087 1097.25
-120.273 -244.108 1097.25
-120.284 -244.113 1097.25
-120.045 -244.227 1096.47
-120.032 -244.233 1096.43
-120.003 -244.227 1096.4
-58.9222 -214.756 1096.27
-58.923 -214.755 1096.27
-58.9246 -214.754 1096.28
-58.928 -214.751 1096.29
-58.9382 -214.746 1096.33
-59.2101 -214.605 1097.25
-120.37 -243.86 1098.25
-120.417 -243.883 1098.25
-120.324 -244.052 1097.52
-120.317 -244.069 1097.45
-120.308 -243.545 1099.22
-120.303 -243.542 1099.22
-59.3661 -214.386 1098.25
-59.3661 -214.386 1098.25
-59.3662 -214.386 1098.25
-59.365 -214.385 1098.25
-59.3648 -214.385 1098.25
-120.308 -243.536 1099.25
-120.308 -243.536 1099.25
-120.307 -243.535 1099.25
-120.302 -243.533 1099.25
-120.302 -243.533 1099.25
-59.3661 -214.384 1098.26
-59.3661 -214.383 1098.26
-59.3663 -214.382 1098.26
-59.4683 -214.141 1099.25
-59.4666 -214.14 1099.25
-120.53 -243.348 1100.25
-120.525 -243.346 1100.25
-120.526 -243.346 1100.25
-120.31 -243.526 1099.28
-120.305 -243.526 1099.28
-59.4798 -214.126 1099.32
-59.4617 -213.843 1100.25
-59.4631 -213.843 1100.25
-59.4672 -213.845 1100.25
-59.4824 -213.853 1100.25
-120.831 -243.196 1101.26
-120.546 -243.34 1100.3
-120.539 -243.343 1100.28
-120.536 -243.345 1100.27
-120.532 -243.344 1100.27
-59.4671 -213.83 1100.3
-59.4686 -213.828 1100.31
-59.4717 -213.824 1100.33
-59.4784 -213.818 1100.36
-59.632 -213.627 1101.26
-59.6737 -213.648 1101.26
-120.97 -242.969 1102.26
-120.967 -242.968 1102.26
-120.965 -242.966 1102.26
-120.962 -242.965 1102.26
-120.535 -243.34 1100.28
-59.6228 -213.328 1102.26
-59.6234 -213.329 1102.26
-59.6264 -213.33 1102.26
-59.6353 -213.335 1102.26
-59.6687 -213.351 1102.26
-120.867 -242.625 1103.26
-120.862 -242.622 1103.26
-120.944 -242.899 1102.46
-120.946 -242.916 1102.4
-120.933 -242.918 1102.37
-120.934 -242.924 1102.35
-59.4233 -212.937 1103.26
-59.4232 -212.937 1103.26
-59.4232 -212.937 1103.26
-59.4233 -212.937 1103.26
-59.423 -212.937 1103.26
-120.902 -242.347 1104.26
-120.899 -242.346 1104.26
-120.899 -242.346 1104.26
-120.899 -242.346 1104.26
-120.899 -242.345 1104.26
-59.4232 -212.937 1103.26
-59.4232 -212.937 1103.26
-59.4233 -212.937 1103.26
-59.3629 -212.614 1104.26
-59.3689 -212.617 1104.26
-121.286 -242.238 1105.26
-120.905 -242.344 1104.27
-120.903 -242.345 1104.27
-120.902 -242.345 1104.27
-120.9 -242.345 1104.26
-59.3673 -212.61 1104.28
-59.369 -212.609 1104.29
-59.3681 -212.607 1104.29
-59.3724 -212.605 1104.31
-59.3742 -212.596 1104.34
-59.5555 -212.412 1105.26
-121.345 -241.972 1106.26
-121.407 -242.002 1106.26
-121.404 -242.001 1106.26
-121.401 -241.999 1106.26
-120.901 -242.344 1104.27
-59.5324 -212.359 1105.4
-59.625 -212.151 1106.26
-59.6339 -212.155 1106.26
-59.6195 -212.149 1106.26
-59.5825 -212.131 1106.26
-121.147 -241.581 1107.26
-121.142 -241.579 1107.26
-121.137 -241.577 1107.26
-121.361 -241.936 1106.41
-121.366 -241.947 1106.38
-121.369 -241.954 1106.36
-59.6095 -212.113 1106.36
-59.6093 -212.106 1106.39
-59.5921 -212.088 1106.42
-59.5893 -212.068 1106.48
-59.4651 -211.779 1107.26
-59.461 -211.777 1107.26
-121.152 -241.289 1108.26
-121.253 -241.338 1108.26
-121.248 -241.336 1108.26
-121.157 -241.522 1107.48
-121.126 -241.519 1107.44
-121.121 -241.526 1107.41
-59.3945 -211.702 1107.41
-59.3934 -211.692 1107.44
-59.3941 -211.679 1107.48
-59.3947 -211.451 1108.26
-59.3556 -211.432 1108.26
-59.3511 -211.43 1108.26
-121.537 -241.181 1109.26
-121.565 -241.194 1109.26
-121.564 -241.194 1109.26
-121.562 -241.193 1109.26
-121.555 -241.19 1109.26
-59.2653 -211.094 1109.26
-59.2622 -211.092 1109.26
-59.265 -211.094 1109.26
-59.2605 -211.091 1109.26
-59.249 -211.086 1109.26
-121.747 -240.988 1110.26
-121.578 -241.148 1109.44
-121.584 -241.174 1109.36
-121.577 -241.179 1109.33
-121.573 -241.182 1109.32
-121.564 -241.18 1109.31
-59.2573 -211.077 1109.3
-59.2582 -211.074 1109.31
-59.2518 -211.065 1109.34
-59.0944 -210.717 1110.26
-59.0489 -210.695 1110.26
-121.363 -240.508 1111.26
-121.348 -240.5 1111.26
-121.342 -240.498 1111.26
-121.339 -240.496 1111.26
-121.33 -240.492 1111.26
-59.0313 -210.391 1111.26
-59.0326 -210.392 1111.26
-59.0312 -210.391 1111.26
-59.0288 -210.39 1111.26
-59.0341 -210.393 1111.26
-121.289 -240.177 1112.26
-121.288 -240.177 1112.26
-121.286 -240.176 1112.26
-121.329 -240.473 1111.32
-121.328 -240.476 1111.31
-59.0307 -210.385 1111.28
-59.0318 -210.384 1111.29
-58.9979 -210.081 1112.26
-58.994 -210.079 1112.26
-59.0028 -210.083 1112.26
-121.642 -240.053 1113.26
-121.639 -240.052 1113.26
-121.339 -240.17 1112.37
-121.325 -240.171 1112.34
-121.315 -240.171 1112.32
-59.0027 -210.073 1112.29
-59.0064 -210.072 1112.3
-59.0066 -210.068 1112.32
-59.1659 -209.867 1113.26
-59.1838 -209.876 1113.26
-121.874 -239.871 1114.26
-121.874 -239.87 1114.26
-121.873 -239.87 1114.26
-121.873 -239.87 1114.26
-121.873 -239.87 1114.26
-59.1757 -209.854 1113.32
-59.1713 -209.848 1113.33
-59.176 -209.845 1113.35
-59.1858 -209.838 1113.39
-59.1954 -209.587 1114.26
-59.1918 -209.585 1114.26
-121.689 -239.484 1115.27
-121.65 -239.465 1115.27
-121.872 -239.868 1114.27
-121.872 -239.869 1114.26
-121.872 -239.869 1114.26
-58.9451 -209.169 1115.27
-58.9409 -209.166 1115.27
-58.9351 -209.164 1115.27
-58.9489 -209.17 1115.27
-58.947 -209.169 1115.27
-121.551 -239.123 1116.27
-121.551 -239.122 1116.27
-121.553 -239.124 1116.27
-121.552 -239.123 1116.27
-121.551 -239.123 1116.27
-58.9259 -209.138 1115.34
-58.9273 -209.134 1115.36
-58.9306 -209.128 1115.39
-58.9196 -209.109 1115.43
-58.8171 -208.812 1116.27
-58.7617 -208.785 1116.27
-121.825 -238.96 1117.27
-121.57 -239.113 1116.33
-121.561 -239.117 1116.31
-121.557 -239.118 1116.29
-121.557 -239.12 1116.29
-58.8593 -208.538 1117.27
-58.8481 -208.533 1117.27
-58.8581 -208.537 1117.27
-58.8817 -208.549 1117.27
-58.8785 -208.547 1117.27
-121.941 -238.722 1118.27
-121.894 -238.699 1118.27
-121.876 -238.691 1118.27
-121.887 -238.696 1118.27
-121.56 -239.116 1116.31
-58.7316 -208.182 1118.27
-58.7376 -208.185 1118.27
-58.7307 -208.181 1118.27
-58.7471 -208.189 1118.27
-58.7448 -208.188 1118.27
-121.854 -238.385 1119.27
-121.811 -238.365 1119.27
-121.795 -238.356 1119.27
-121.804 -238.361 1119.27
-121.793 -238.356 1119.27
-58.7123 -208.145 1118.36
-58.4136 -207.733 1119.27
-58.4081 -207.731 1119.27
-58.399 -207.726 1119.27
-58.4192 -207.736 1119.27
-121.794 -238.062 1120.27
-121.756 -238.043 1120.27
-121.741 -238.036 1120.27
-121.75 -238.04 1120.27
-121.74 -238.035 1120.27
-58.4125 -207.711 1119.35
-58.4073 -207.703 1119.36
-58.2373 -207.354 1120.27
-58.236 -207.353 1120.27
-58.2346 -207.352 1120.27
-121.952 -237.843 1121.27
-121.931 -237.833 1121.27
-121.936 -237.836 1121.27
-121.928 -237.832 1121.27
-121.93 -237.833 1121.27
-58.2467 -207.342 1120.32
-58.247 -207.339 1120.34
-58.2483 -207.334 1120.36
-58.252 -207.324 1120.39
-58.2634 -207.302 1120.49
-58.3658 -207.121 1121.27
-122.199 -237.668 1122.27
-122.204 -237.67 1122.27
-122.202 -237.669 1122.27
-122.2 -237.669 1122.27
-122.201 -237.669 1122.27
-58.2537 -207.325 1120.39
-58.4025 -206.844 1122.27
-58.4063 -206.846 1122.27
-58.4174 -206.851 1122.27
-58.4583 -206.871 1122.27
-122.074 -237.313 1123.27
-122.097 -237.324 1123.27
-122.198 -237.659 1122.3
-122.198 -237.661 1122.29
-122.199 -237.663 1122.29
-58.3198 -206.51 1123.27
-58.3193 -206.51 1123.27
-58.3187 -206.509 1123.27
-58.3182 -206.509 1123.27
-58.3177 -206.509 1123.27
-121.958 -236.963 1124.27
-122 -236.983 1124.27
-122.069 -237.263 1123.43
-122.067 -237.275 1123.39
-122.075 -237.286 1123.36
-58.3189 -206.502 1123.29
-58.3181 -206.5 1123.3
-58.317 -206.496 1123.31
-58.2757 -206.194 1124.27
-58.2736 -206.193 1124.27
-122.137 -236.754 1125.27
-122.095 -236.734 1125.27
-122.104 -236.739 1125.27
-122.088 -236.731 1125.27
-121.993 -236.935 1124.42
-58.2788 -206.169 1124.36
-58.2418 -205.883 1125.27
-58.2402 -205.882 1125.27
-58.2385 -205.881 1125.27
-58.2369 -205.881 1125.27
-122.224 -236.502 1126.27
-122.221 -236.501 1126.27
-122.196 -236.488 1126.27
-122.182 -236.481 1126.27
-122.105 -236.7 1125.4
-58.233 -205.859 1125.34
-58.0844 -205.512 1126.27
-58.0834 -205.512 1126.27
-58.0824 -205.511 1126.27
-58.0814 -205.511 1126.27
-122.202 -236.197 1127.27
-122.229 -236.21 1127.27
-122.216 -236.204 1127.27
-122.224 -236.207 1127.27
-122.177 -236.445 1126.38
-58.0679 -205.493 1126.31
-57.7623 -205.062 1127.27
-57.7618 -205.062 1127.27
-57.7613 -205.062 1127.27
-57.7609 -205.061 1127.27
-122.13 -235.864 1128.28
-122.153 -235.876 1128.28
-122.142 -235.87 1128.28
-122.149 -235.873 1128.28
-122.141 -235.87 1128.28
-57.7565 -205.053 1127.29
-57.7573 -205.052 1127.29
-57.5577 -204.666 1128.28
-57.5576 -204.666 1128.28
-57.5576 -204.666 1128.28
-122.259 -235.632 1129.28
-122.247 -235.626 1129.28
-122.249 -235.627 1129.28
-122.245 -235.625 1129.28
-122.246 -235.626 1129.28
-57.5572 -204.665 1128.28
-57.557 -204.664 1128.28
-57.5566 -204.664 1128.29
-57.5558 -204.662 1128.29
-57.3825 -204.286 1129.28
-122.458 -235.434 1130.28
-122.272 -235.593 1129.43
-122.265 -235.61 1129.36
-122.255 -235.613 1129.34
-122.254 -235.617 1129.33
-57.5571 -204.664 1128.29
-57.335 -203.969 1130.28
-57.3326 -203.968 1130.28
-57.3303 -203.967 1130.28
-57.3279 -203.965 1130.28
-122.368 -235.096 1131.28
-122.382 -235.102 1131.28
-122.376 -235.099 1131.28
-122.379 -235.101 1131.28
-122.375 -235.099 1131.28
-57.3225 -203.933 1130.38
-57.316 -203.921 1130.41
-57.3063 -203.902 1130.46
-57.0371 -203.53 1131.28
-57.033 -203.528 1131.28
-122.26 -234.749 1132.28
-122.291 -234.764 1132.28
-122.366 -235.068 1131.37
-122.373 -235.078 1131.35
-122.376 -235.084 1131.33
-56.7924 -203.118 1132.28
-56.7925 -203.118 1132.28
-56.7902 -203.117 1132.28
-56.7899 -203.116 1132.28
-56.7896 -203.116 1132.28
-122.426 -234.535 1133.28
-122.417 -234.53 1133.28
-122.419 -234.531 1133.28
-122.416 -234.53 1133.28
-122.417 -234.53 1133.28
-56.7879 -203.111 1132.29
-56.7847 -203.108 1132.3
-56.7822 -203.105 1132.31
-56.7768 -203.097 1132.32
-56.4979 -202.681 1133.28
-122.652 -234.349 1134.28
-122.436 -234.513 1133.37
-122.432 -234.521 1133.33
-122.429 -234.525 1133.32
-122.424 -234.525 1133.31
-56.4493 -202.363 1134.28
-56.449 -202.363 1134.28
-56.4487 -202.362 1134.28
-56.4484 -202.362 1134.28
-122.588 -234.024 1135.28
-122.59 -234.025 1135.28
-122.591 -234.025 1135.28
-122.59 -234.024 1135.28
-56.448 -202.358 1134.29
-56.4472 -202.357 1134.3
-56.446 -202.355 1134.3
-56.4437 -202.349 1134.32
-56.3095 -202.001 1135.28
-122.421 -233.648 1136.28
-122.586 -234.014 1135.31
-122.587 -234.018 1135.3
-122.588 -234.02 1135.29
-122.589 -234.021 1135.29
-56.1444 -201.626 1136.28
-56.1441 -201.626 1136.28
-56.1438 -201.626 1136.28
-56.1434 -201.626 1136.28
-122.524 -233.404 1137.28
-122.521 -233.402 1137.28
-122.495 -233.389 1137.28
-122.47 -233.628 1136.43
-122.469 -233.636 1136.4
-56.145 -201.622 1136.3
-56.1448 -201.62 1136.3
-56.064 -201.293 1137.28
-56.0605 -201.291 1137.28
-122.719 -233.203 1138.28
-122.716 -233.202 1138.28
-122.714 -233.201 1138.28
-122.544 -233.37 1137.43
-122.535 -233.374 1137.4
-56.0622 -201.288 1137.29
-56.0622 -201.287 1137.3
-56.0625 -201.284 1137.31
-56.058 -201.275 1137.33
-56.0124 -200.973 1138.28
-122.577 -232.84 1139.28
-122.574 -232.838 1139.28
-122.688 -233.137 1138.45
-122.692 -233.152 1138.41
-122.694 -233.161 1138.38
-55.7831 -200.568 1139.28
-55.7801 -200.566 1139.28
-55.7807 -200.567 1139.28
-55.7826 -200.568 1139.28
-55.7743 -200.564 1139.28
-122.39 -232.455 1140.28
-122.385 -232.452 1140.28
-122.522 -232.739 1139.53
-122.531 -232.763 1139.46
-122.535 -232.777 1139.43
-55.7759 -200.556 1139.31
-55.7749 -200.554 1139.32
-55.7736 -200.549 1139.33
-55.5206 -200.146 1140.28
-55.541 -200.156 1140.28
-122.384 -232.155 1141.29
-122.38 -232.153 1141.29
-122.376 -232.151 1141.29
-122.371 -232.148 1141.29
-122.369 -232.389 1140.47
-55.5205 -200.124 1140.36
-55.5117 -200.115 1140.37
-55.4961 -199.837 1141.29
-55.5002 -199.839 1141.29
-55.4821 -199.83 1141.29
-122.541 -231.936 1142.29
-122.499 -231.915 1142.29
-122.508 -231.92 1142.29
-122.511 -231.922 1142.29
-122.512 -231.922 1142.29
-55.3941 -199.493 1142.29
-55.3919 -199.492 1142.29
-55.3932 -199.493 1142.29
-55.398 -199.495 1142.29
-122.582 -231.661 1143.29
-122.578 -231.659 1143.29
-122.543 -231.87 1142.52
-122.538 -231.884 1142.46
-122.533 -231.892 1142.42
-55.3901 -199.485 1142.31
-55.39 -199.482 1142.32
-55.2252 -199.117 1143.29
-55.2242 -199.117 1143.29
-122.586 -231.368 1144.29
-122.581 -231.366 1144.29
-122.575 -231.581 1143.55
-122.571 -231.599 1143.48
-122.567 -231.609 1143.44
-55.201 -199.095 1143.32
-55.2032 -199.094 1143.33
-55.2009 -199.088 1143.35
-54.9154 -198.673 1144.29
-54.9136 -198.672 1144.29
-122.814 -231.184 1145.29
-122.816 -231.185 1145.29
-122.817 -231.185 1145.29
-122.817 -231.185 1145.29
-54.8699 -198.632 1144.35
-54.874 -198.629 1144.37
-54.8695 -198.619 1144.4
-54.7796 -198.313 1145.29
-54.7772 -198.311 1145.29
-122.954 -230.957 1146.29
-122.964 -230.962 1146.29
-122.818 -231.183 1145.3
-122.818 -231.184 1145.3
-54.7707 -198.281 1145.38
-54.7641 -198.271 1145.41
-54.7546 -198.254 1145.45
-54.6056 -197.934 1146.29
-54.6025 -197.932 1146.29
-123.008 -230.689 1147.29
-123.006 -230.688 1147.29
-122.968 -230.946 1146.35
-122.969 -230.951 1146.34
-122.968 -230.954 1146.33
-54.5929 -197.893 1146.41
-54.5671 -197.872 1146.44
-54.5486 -197.848 1146.49
-54.2239 -197.455 1147.29
-54.2592 -197.472 1147.29
-122.867 -230.326 1148.29
-122.865 -230.325 1148.29
-122.848 -230.317 1148.29
-122.985 -230.656 1147.36
-122.987 -230.662 1147.35
-54.1793 -197.394 1147.42
-54.1715 -197.381 1147.46
-54.1607 -197.359 1147.51
-53.9841 -197.045 1148.29
-54.024 -197.064 1148.29
-122.86 -230.028 1149.29
-122.858 -230.027 1149.29
-122.856 -230.026 1149.29
-122.845 -230.021 1149.29
-122.85 -230.295 1148.37
-53.9502 -196.985 1148.43
-53.9458 -196.973 1148.47
-53.8373 -196.679 1149.29
-53.8466 -196.683 1149.29
-53.8818 -196.701 1149.29
-122.919 -229.762 1150.29
-122.918 -229.762 1150.29
-122.911 -229.758 1150.29
-122.912 -229.758 1150.29
-53.809 -196.628 1149.42
-53.8033 -196.617 1149.45
-53.537 -196.239 1150.29
-53.5524 -196.247 1150.29
-53.5497 -196.245 1150.29
-122.884 -229.45 1151.29
-122.87 -229.443 1151.29
-122.873 -229.445 1151.29
-122.91 -229.745 1150.33
-53.5041 -196.197 1150.38
-53.501 -196.189 1150.4
-53.4975 -196.176 1150.44
-53.4712 -195.913 1151.29
-53.4685 -195.912 1151.29
-122.742 -229.087 1152.29
-122.765 -229.098 1152.29
-122.865 -229.418 1151.37
-122.868 -229.425 1151.35
-122.869 -229.43 1151.34
-53.4723 -195.883 1151.39
-53.4676 -195.872 1151.42
-53.4616 -195.856 1151.47
-53.4009 -195.584 1152.29
-53.3972 -195.583 1152.29
-122.789 -228.815 1153.29
-122.763 -228.803 1153.29
-122.769 -228.805 1153.29
-122.772 -229.071 1152.39
-122.773 -229.078 1152.37
-53.4119 -195.549 1152.43
-53.4081 -195.537 1152.46
-53.4043 -195.519 1152.52
-53.3996 -195.289 1153.29
-53.3959 -195.287 1153.29
-122.815 -228.533 1154.29
-122.813 -228.532 1154.29
-122.811 -228.532 1154.29
-122.773 -228.777 1153.39
-122.773 -228.783 1153.37
-53.3975 -195.248 1153.43
-53.4104 -195.244 1153.46
-53.4229 -195.006 1154.29
-53.4195 -195.004 1154.29
-53.416 -195.003 1154.29
-122.898 -228.276 1155.3
-122.895 -228.275 1155.3
-122.807 -228.492 1154.42
-122.806 -228.501 1154.38
-122.805 -228.506 1154.37
-53.3973 -194.955 1154.42
-53.4043 -194.948 1154.46
-53.3932 -194.926 1154.51
-53.2839 -194.641 1155.3
-53.2798 -194.639 1155.3
-122.817 -227.942 1156.3
-122.813 -227.94 1156.3
-122.878 -228.216 1155.47
-122.879 -228.23 1155.43
-122.867 -228.231 1155.4
-53.2526 -194.58 1155.46
-53.2369 -194.561 1155.5
-53.2127 -194.528 1155.57
-53.0015 -194.21 1156.3
-52.9962 -194.208 1156.3
-122.987 -227.73 1157.3
-122.983 -227.728 1157.3
-122.98 -227.726 1157.3
-122.959 -227.716 1157.3
-122.809 -227.896 1156.45
-52.9807 -194.145 1156.49
-52.9667 -194.125 1156.53
-52.8131 -193.825 1157.3
-52.8086 -193.822 1157.3
-52.804 -193.82 1157.3
-123.156 -227.517 1158.3
-123.155 -227.516 1158.3
-123.154 -227.516 1158.3
-123.153 -227.515 1158.3
-52.8259 -193.536 1158.3
-52.8276 -193.537 1158.3
-52.8095 -193.528 1158.3
-52.8073 -193.527 1158.3
-123.148 -227.218 1159.3
-123.146 -227.218 1159.3
-123.145 -227.217 1159.3
-123.152 -227.501 1158.35
-52.8135 -193.5 1158.4
-52.8111 -193.489 1158.44
-52.8046 -193.231 1159.3
-52.8023 -193.23 1159.3
-122.961 -226.834 1160.3
-123.12 -227.163 1159.44
-123.129 -227.184 1159.39
-123.132 -227.193 1159.36
-123.134 -227.197 1159.35
-52.7894 -193.196 1159.39
-52.7944 -193.191 1159.42
-52.7857 -193.172 1159.47
-52.7688 -193.132 1159.58
-52.658 -192.866 1160.3
-123.023 -226.569 1161.3
-122.972 -226.544 1161.3
-122.94 -226.752 1160.54
-122.94 -226.77 1160.48
-122.938 -226.78 1160.44
-52.785 -193.165 1159.49
-52.56 -192.752 1160.52
-52.5519 -192.726 1160.6
-52.518 -192.504 1161.3
-52.5126 -192.501 1161.3
-123.115 -226.319 1162.3
-123.113 -226.317 1162.3
-123.129 -226.325 1162.3
-123.122 -226.322 1162.3
-123.116 -226.319 1162.3
-52.5705 -192.234 1162.3
-52.5626 -192.231 1162.3
-52.552 -192.225 1162.3
-52.5752 -192.237 1162.3
-52.5713 -192.235 1162.3
-123.164 -226.048 1163.3
-123.195 -226.063 1163.3
-123.11 -226.266 1162.47
-123.107 -226.277 1162.43
-123.104 -226.284 1162.4
-52.5555 -192.186 1162.44
-52.5437 -192.169 1162.48
-52.5264 -192.143 1162.54
-52.5405 -191.925 1163.3
-52.4915 -191.902 1163.3
-123.106 -225.725 1164.3
-123.105 -225.725 1164.3
-123.104 -225.724 1164.3
-123.099 -225.722 1164.3
-52.1853 -191.459 1164.3
-52.1836 -191.458 1164.3
-52.1819 -191.458 1164.3
-52.1802 -191.457 1164.3
-123.106 -225.431 1165.3
-123.105 -225.43 1165.3
-123.104 -225.708 1164.36
-123.103 -225.712 1164.34
-52.1772 -191.433 1164.38
-52.1728 -191.423 1164.4
-52.0756 -191.112 1165.3
-52.0737 -191.111 1165.3
