-139.305865 107.344925 1422.361655
-141.411853 107.586548 1422.500662
-142.672322 107.380463 1421.217107
-144.120231 107.355256 1420.567033
-145.726517 107.460938 1420.366719
-147.054834 107.344635 1419.407093
-148.318694 107.191132 1418.327051
-149.597312 107.060059 1417.328943
-150.980220 107.008545 1416.601043
-152.274757 106.901947 1415.692098
-153.738754 106.906678 1415.152626
-154.544486 106.551941 1413.309174
-156.098556 106.576966 1412.968065
-157.312792 106.442963 1411.983035
-158.660047 106.385956 1411.247448
-159.829599 106.235108 1410.213635
-161.151013 106.166230 1409.441544
-162.636876 106.177643 1408.919769
-164.202743 106.221375 1408.493403
-165.441305 106.105042 1407.567825
-166.667712 105.983918 1406.628352
-167.845988 105.842286 1405.627280
-169.293210 105.816620 1404.975569
-170.357506 105.626770 1403.830048
-171.651012 105.532532 1402.969661
-172.340336 105.198487 1401.405072
-173.551175 105.073822 1400.457688
-174.543585 104.866333 1399.270636
-175.281353 104.568726 1397.829507
-176.194521 104.339905 1396.589653
-177.045616 104.092530 1395.301065
-178.132257 103.927979 1394.245630
-178.959997 103.677430 1392.953559
-179.819381 103.439972 1391.700532
-180.723907 103.218689 1390.493289
-181.567395 102.979706 1389.240350
-182.441256 102.751282 1388.017031
-183.407540 102.550507 1386.866180
-184.305247 102.329377 1385.662091
-185.185769 102.103241 1384.445179
-185.746009 101.790131 1383.011255
-186.499526 101.531739 1381.716887
-187.232344 101.268738 1380.412591
-187.816208 100.968964 1379.021632
-188.481847 100.690583 1377.686588
-189.125627 100.409790 1376.343063
-189.647363 100.100342 1374.938136
-190.175995 99.794465 1373.544514
-190.678594 99.484406 1372.144475
-191.106970 99.159821 1370.716063
-191.644452 98.860474 1369.344460
-192.104946 98.548371 1367.942713
-192.610003 98.241425 1366.563633
-193.036958 97.922120 1365.156378
-193.440867 97.601014 1363.744663
-193.856526 97.279877 1362.340806
-194.109247 96.931397 1360.886357
-194.827158 96.665406 1359.581764
-195.210725 96.342255 1358.170220
-195.527571 96.006684 1356.741533
-195.858683 95.675690 1355.318696
-196.285915 95.356629 1353.918872
-196.664683 95.030945 1352.505129
-196.995426 94.697449 1351.079328
-197.359176 94.368226 1349.657482
-197.735646 94.039765 1348.233717
-198.087847 93.706574 1346.801285
-198.419163 93.369568 1345.361035
-198.718849 93.027100 1343.912078
-199.122352 92.695984 1342.467069
-199.319511 92.338166 1340.997972
-199.546923 91.983063 1339.527168
-199.836892 91.633179 1338.053306
-200.102439 91.278840 1336.570696
-200.339827 90.919526 1335.079722
-200.534663 90.553498 1333.581203
-200.702656 90.184296 1332.075905
-201.127250 89.834198 1330.549454
-201.371632 89.465149 1329.017973
-201.606360 89.092255 1327.475052
-201.738619 88.708710 1325.929974
-202.116415 88.338898 1324.344443
-202.098258 87.939484 1322.794532
-202.122349 87.539978 1321.230941
-202.411239 87.153321 1319.611146
-202.768069 86.764069 1317.958028
-203.148032 86.369751 1316.276237
-203.142345 85.953888 1314.657640
-203.119790 85.533753 1313.030350
-203.402007 85.119873 1311.307961
-203.748722 84.700409 1309.540993
-204.002967 84.271515 1307.772353
-204.131331 83.833619 1306.016714
-203.678387 85.032481 1310.610000
-203.677598 84.766587 1309.610000
-203.653548 84.461382 1308.610000
-203.641944 84.192840 1307.610000
-203.785554 83.954072 1306.610000
-203.886193 83.703752 1305.610000
-203.998340 83.459733 1304.610000
-204.165291 83.219456 1303.610000
-204.185386 82.964817 1302.610000
-204.154648 82.705237 1301.610000
-204.164912 82.435316 1300.610000
-204.223534 82.178124 1299.610000
-204.387371 81.947126 1298.610000
-204.498923 81.715219 1297.610000
-204.563233 81.471893 1296.610000
-204.597340 81.223396 1295.610000
-204.668949 80.963827 1294.610000
-204.694580 80.705491 1293.610000
-204.736451 80.453045 1292.610000
-204.776174 80.200375 1291.610000
-204.674732 79.933907 1290.610000
-204.781390 79.689361 1289.610000
-204.770339 79.431064 1288.610000
-204.708980 79.165912 1287.610000
-204.630247 78.903005 1286.610000
-204.606240 78.649214 1285.610000
-204.653769 78.402398 1284.610000
-204.755901 78.155186 1283.610000
-204.870755 77.900532 1282.610000
-204.840054 77.640893 1281.610000
-204.432226 77.344522 1280.610000
-204.062228 77.051767 1279.610000
-204.032943 76.792279 1278.610000
-203.995095 76.532023 1277.610000
-204.006148 76.280046 1276.610000
-203.898291 76.013028 1275.610000
-203.759664 75.740842 1274.610000
-203.698570 75.476964 1273.610000
-203.328482 75.184048 1272.610000
-202.958702 74.891548 1271.610000
-202.602862 74.599650 1270.610000
-202.365943 74.308969 1269.610000
-202.351212 74.054869 1268.610000
-202.235885 73.803400 1267.610000
-202.186710 73.534018 1266.610000
-202.068023 73.268373 1265.610000
-201.637207 72.966136 1264.610000
-201.157028 72.661622 1263.610000
-200.850579 72.375640 1262.610000
-200.491999 72.084207 1261.610000
-200.108341 71.789229 1260.610000
-199.835735 71.510794 1259.610000
-199.644669 71.231795 1258.610000
-199.408371 70.952097 1257.610000
-198.895322 70.645368 1256.610000
-198.702281 70.369945 1255.610000
-198.357513 70.079707 1254.610000
-198.012964 69.789358 1253.610000
-197.408157 69.473666 1252.610000
-196.969871 69.174282 1251.610000
-196.622839 68.883793 1250.610000
-196.646514 68.651131 1249.610000
-196.531404 68.400978 1248.610000
-196.196282 68.405466 1247.610000
-195.651068 68.400369 1246.610000
-195.207582 68.419549 1245.610000
-194.835274 68.451437 1244.610000
-194.496363 68.489796 1243.610000
-194.190465 68.534960 1242.610000
-193.854586 68.570446 1241.610000
-193.698002 68.646762 1240.610000
-193.213027 68.652809 1239.610000
-192.716705 68.627322 1238.610000
-192.546205 68.676429 1237.610000
-192.545354 68.821121 1236.610000
-192.427665 68.912160 1235.610000
-192.167651 68.957435 1234.610000
-191.903711 69.007734 1233.610000
-191.415726 69.020763 1232.610000
-190.913536 69.029339 1231.610000
-190.489016 69.051263 1230.610000
-190.129743 69.085475 1229.610000
-189.680214 69.103614 1228.610000
-189.624215 69.191653 1227.610000
-189.349744 69.228244 1226.610000
-189.063434 69.253372 1225.610000
-189.060636 69.405231 1224.610000
-188.827667 69.449215 1223.610000
-188.404162 69.463806 1222.610000
-187.845081 69.448579 1221.610000
-187.683532 69.535543 1220.610000
-187.424934 69.593164 1219.610000
-187.112296 69.627365 1218.610000
-186.755005 69.661909 1217.610000
-186.496804 69.714050 1216.610000
-186.142143 69.749071 1215.610000
-185.838188 69.789723 1214.610000
-185.598043 69.836116 1213.610000
-185.329966 69.897246 1212.610000
-185.188769 69.974224 1211.610000
-185.001957 70.033869 1210.610000
-184.818537 70.102891 1209.610000
-184.505426 70.153451 1208.610000
-184.182326 70.195776 1207.610000
-183.829469 70.220140 1206.610000
-183.564447 70.271096 1205.610000
-183.372564 70.335008 1204.610000
-183.185982 70.399827 1203.610000
-182.834676 70.441322 1202.610000
-182.412738 70.459650 1201.610000
-182.049827 70.495776 1200.610000
-181.792138 70.544564 1199.610000
-181.600490 70.582900 1198.610000
-181.392261 70.626476 1197.610000
-181.206841 70.720842 1196.610000
-180.758792 70.752644 1195.610000
-180.384145 70.786329 1194.610000
-179.853146 70.786230 1193.610000
-179.497211 70.822519 1192.610000
-179.097419 70.849490 1191.610000
-178.897394 70.911925 1190.610000
-178.486437 70.936934 1189.610000
-178.139869 70.950541 1188.610000
-177.813297 70.994153 1187.610000
-177.215201 71.004961 1186.610000
-176.690537 70.990116 1185.610000
-176.633619 71.086617 1184.610000
-176.608329 71.185455 1183.610000
-176.509266 71.278793 1182.610000
-176.284085 71.329655 1181.610000
-176.037639 71.383883 1180.610000
-175.873390 71.452699 1179.610000
-175.677743 71.515954 1178.610000
-175.620224 71.600433 1177.610000
-175.333304 71.630821 1176.610000
-175.094604 71.704115 1175.610000
-174.827333 71.760204 1174.610000
-174.405462 71.787194 1173.610000
-174.273362 71.880966 1172.610000
-174.247695 71.980853 1171.610000
-173.622425 71.934778 1170.610000
-172.970734 71.917035 1169.610000
-172.650480 71.958113 1168.610000
-172.049080 71.931726 1167.610000
-171.847647 72.006089 1166.610000
-171.507424 72.044079 1165.610000
-171.450997 72.122461 1164.610000
-171.394124 72.201462 1163.610000
-170.976984 72.260360 1162.610000
-170.433568 72.249492 1161.610000
-169.983582 72.268901 1160.610000
-169.589787 72.296383 1159.610000
-169.543309 72.386093 1158.610000
-169.478833 72.472685 1157.610000
-169.340672 72.546111 1156.610000
-168.397377 72.377187 1155.610000
-168.250421 72.398295 1154.610000
-168.293274 72.675486 1153.610000
-168.259785 72.759969 1152.610000
-167.977647 72.794240 1151.610000
-167.936071 72.895144 1150.610000
-167.676824 72.997960 1149.610000
-167.009835 72.916014 1148.610000
-166.774009 72.972136 1147.610000
-166.351836 72.995121 1146.610000
-166.025488 72.999960 1145.610000
-165.848506 73.053404 1144.610000
-165.655770 73.133597 1143.610000
-165.035411 73.148677 1142.610000
-164.813137 73.232420 1141.610000
-164.668340 73.325925 1140.610000
-163.552558 73.183828 1139.610000
-163.579740 73.286651 1138.610000
-163.505045 73.374932 1137.610000
-163.174172 73.416715 1136.610000
-162.158434 73.271648 1135.610000
-161.472118 73.304232 1134.610000
-161.446153 73.398143 1133.610000
-161.382324 73.485094 1132.610000
-161.178554 73.550506 1131.610000
-160.422689 73.509800 1130.610000
-159.570917 73.429687 1129.610000
-159.577087 73.501394 1128.610000
-159.435667 73.600369 1127.610000
-159.341273 73.687714 1126.610000
-159.508154 73.854242 1125.610000
-158.873294 73.860296 1124.610000
-158.510072 73.878994 1123.610000
-157.820591 73.831548 1122.610000
-157.532399 73.878331 1121.610000
-157.074905 73.880713 1120.610000
-156.810716 73.908404 1119.610000
-156.649031 74.009003 1118.610000
-156.432042 74.066028 1117.610000
-156.197036 74.123200 1116.610000
-155.555769 74.115133 1115.610000
-155.005248 74.115340 1114.610000
-155.095374 74.229365 1113.610000
-154.892399 74.291866 1112.610000
-154.753755 74.381681 1111.610000
-154.479352 74.423032 1110.610000
-153.150590 74.276556 1109.610000
-153.092144 74.364397 1108.610000
-152.930398 74.433189 1107.610000
-152.821056 74.510436 1106.610000
-152.643075 74.577700 1105.610000
-152.518028 74.653477 1104.610000
-151.895914 74.638574 1103.610000
-150.943113 74.566334 1102.610000
-150.783032 74.623166 1101.610000
-150.548623 74.681773 1100.610000
-150.541151 74.783206 1099.610000
-150.536797 74.889467 1098.610000
-150.921734 75.142964 1097.610000
-150.646231 75.104934 1096.610000
-149.783166 75.135345 1095.610000
-149.568562 75.198337 1094.610000
-148.945049 75.051429 1093.610000
-148.252073 75.071580 1092.610000
-148.011145 75.126819 1091.610000
-147.761582 75.180450 1090.610000
-147.432087 75.174160 1089.610000
-147.077399 75.221099 1088.610000
-146.969638 75.328564 1087.610000
-146.725579 75.391688 1086.610000
-146.715899 75.492724 1085.610000
-146.627453 75.628798 1084.610000
-146.522858 75.676405 1083.610000
-146.172576 75.682145 1082.610000
-146.088159 75.765155 1081.610000
-146.130114 75.870583 1080.610000
-146.162775 75.974369 1079.610000
-146.171784 76.073927 1078.610000
-146.202174 76.177369 1077.610000
-146.229170 76.284374 1076.610000
-145.940234 76.327893 1075.610000
-145.949548 76.426814 1074.610000
-145.548869 76.461940 1073.610000
-145.534173 76.526315 1072.610000
-145.614047 76.624384 1071.610000
-145.725369 76.721652 1070.610000
-146.290792 76.976508 1069.610000
-146.285162 77.073494 1068.610000
-146.077297 77.151791 1067.610000
-146.126231 77.242209 1066.610000
-145.994913 77.313198 1065.610000
-145.929368 77.415916 1064.610000
-146.103266 77.545362 1063.610000
-146.324052 77.739386 1062.610000
-146.520368 77.878303 1061.610000
-146.449340 77.942484 1060.610000
-146.363155 77.994696 1059.610000
-146.899502 78.273833 1058.610000
-147.093651 78.427126 1057.610000
-147.236010 78.476439 1056.610000
-147.579588 78.577890 1055.610000
-148.008523 78.750204 1054.610000
-148.191170 78.881098 1053.610000
-148.015438 78.949131 1052.610000
-148.036706 79.050972 1051.610000
-148.292405 79.194318 1050.610000
-148.441342 79.318607 1049.610000
-148.450883 79.418453 1048.610000
-148.156995 79.418247 1047.610000
-148.114057 79.481615 1046.610000
-148.843362 79.781976 1045.610000
-149.784911 80.047453 1044.610000
-150.347460 80.245386 1043.610000
-150.472337 80.365594 1042.610000
-150.546034 80.476654 1041.610000
-150.571439 80.579150 1040.610000
-150.206380 80.606439 1039.610000
-150.193718 80.702161 1038.610000
-150.230409 80.808945 1037.610000
-150.839407 81.018745 1036.610000
-151.019942 81.148759 1035.610000
-151.079273 81.257328 1034.610000
-151.069621 81.353623 1033.610000
-151.255634 81.484662 1032.610000
-151.384455 81.605462 1031.610000
-151.902102 81.795452 1030.610000
-152.461963 81.992647 1029.610000
-152.988875 82.203493 1028.610000
-152.996381 82.226899 1027.610000
-153.541612 82.475965 1026.610000
-154.118936 82.669141 1025.610000
-154.469006 82.836139 1024.610000
-155.344842 83.092939 1023.610000
-155.403781 83.201390 1022.610000
-156.001615 83.405592 1021.610000
-156.360164 83.567229 1020.610000
-156.708013 83.727053 1019.610000
-157.818947 84.014383 1018.610000
-159.405760 84.402180 1017.610000
-159.798615 84.569983 1016.610000
-160.339972 84.764102 1015.610000
-160.924309 84.986829 1014.610000
-161.657654 85.202665 1013.610000
-162.264139 85.391226 1012.610000
-163.629291 85.740356 1011.610000
-163.564721 85.838816 1010.610000
-164.003410 86.002780 1009.610000
-164.581390 86.203484 1008.610000
-165.494209 86.460452 1007.610000
-167.375757 86.905894 1006.610000
-169.896972 87.441641 1005.610000
-171.761262 87.880189 1004.610000
-172.039305 88.016828 1003.610000
-171.824783 88.087855 1002.610000
-171.808050 88.195153 1001.610000
-172.031666 88.319103 1000.610000
-172.563238 88.514768 999.610000
-172.800664 88.640823 998.610000
-173.366785 88.826342 997.610000
-173.825341 89.026875 996.610000
-174.423033 89.305396 995.610000
-174.493397 89.382389 994.610000
-174.698736 89.436061 993.610000
-174.747779 89.494932 992.610000
-175.381208 89.791281 991.610000
-176.237712 90.037879 990.610000
-176.543848 90.190205 989.610000
-177.313613 90.426341 988.610000
-177.513336 90.567181 987.610000
-178.206776 90.849415 986.610000
-178.581763 90.983445 985.610000
-179.440449 91.187934 984.610000
-179.896662 91.360919 983.610000
-180.219195 91.493536 982.610000
-180.508856 91.588621 981.610000
-181.065501 91.855326 980.610000
-181.699679 92.085911 979.610000
-182.169513 92.267436 978.610000
-183.073599 92.525967 977.610000
-183.417088 92.685015 976.610000
-184.091534 92.905231 975.610000
-184.334385 93.043622 974.610000
-184.884394 93.241239 973.610000
-185.208472 93.397197 972.610000
-185.698019 93.580113 971.610000
-186.065150 93.743282 970.610000
-186.401653 93.904103 969.610000
-186.657430 94.048083 968.610000
-187.096090 94.237117 967.610000
-187.991814 94.499985 966.610000
-188.319327 94.636742 965.610000
-188.705824 94.800115 964.610000
-188.948927 94.941633 963.610000
-189.073619 95.061422 962.610000
-189.290159 95.198253 961.610000
-189.414318 95.318656 960.610000
-189.274203 95.354581 959.610000
-190.603580 95.768038 958.610000
-190.945447 95.902415 957.610000
-191.251019 96.037701 956.610000
-191.775490 96.228186 955.610000
-192.119390 96.386616 954.610000
-192.516485 96.555103 953.610000
-192.699593 96.685607 952.610000
-193.136535 96.861270 951.610000
-193.524734 97.028196 950.610000
-193.933375 97.198740 949.610000
-194.454035 97.389203 948.610000
-195.148279 97.629517 947.610000
-195.458831 97.782934 946.610000
-195.533743 97.866783 945.610000
-195.809628 97.997847 944.610000
-196.154501 98.137133 943.610000
-196.025726 98.170865 942.610000
-196.012282 98.321840 941.610000
-196.213304 98.459348 940.610000
-196.522328 98.598791 939.610000
-197.147321 98.810547 938.610000
-197.518592 99.006941 937.610000
-198.117409 99.223232 936.610000
-197.964737 99.251078 935.610000
-197.989950 99.326290 934.610000
-197.950954 99.389677 933.610000
-198.793659 99.722901 932.610000
-199.062957 99.883018 931.610000
-199.043152 99.977538 930.610000
-199.169858 100.099955 929.610000
-199.181237 100.206282 928.610000
-199.225698 100.302744 927.610000
-199.724955 100.490901 926.610000
-200.004163 100.621752 925.610000
-200.155429 100.742355 924.610000
-200.435199 100.894984 923.610000
-200.411219 100.977114 922.610000
-200.389080 101.062328 921.610000
-200.769357 101.256576 920.610000
-200.938503 101.387314 919.610000
-201.180979 101.529053 918.610000
-201.516603 101.681821 917.610000
-201.791741 101.827512 916.610000
-202.048229 101.969044 915.610000
-202.213447 102.096665 914.610000
-202.244958 102.201699 913.610000
-202.255219 102.303732 912.610000
-202.261920 102.408337 911.610000
-202.360557 102.516923 910.610000
-201.980735 102.509542 909.610000
-201.821799 102.539102 908.610000
-202.347160 102.754505 907.610000
-202.767237 102.964258 906.610000
-202.897439 103.089831 905.610000
-202.958046 103.203007 904.610000
-203.245263 103.370633 903.610000
-203.199655 103.479541 902.610000
-203.143083 103.573386 901.610000
-202.740805 103.552873 900.610000
-202.720473 103.649866 899.610000
-202.831156 103.777618 898.610000
-203.022643 103.917529 897.610000
-203.168400 104.042028 896.610000
-203.492159 104.204045 895.610000
-203.443323 104.283064 894.610000
-203.411108 104.369801 893.610000
-203.268242 104.442413 892.610000
-203.252098 104.537564 891.610000
-203.161701 104.619501 890.610000
-203.165562 104.718170 889.610000
-203.280796 104.836610 888.610000
-203.262378 104.931339 887.610000
-203.129342 105.005695 886.610000
-203.157772 105.108722 885.610000
-203.076842 105.192337 884.610000
-202.979311 105.271419 883.610000
-202.874670 105.353448 882.610000
-202.568567 105.391031 881.610000
-202.464977 105.479115 880.610000
-202.407088 105.566279 879.610000
-202.392902 105.662769 878.610000
-202.382326 105.755414 877.610000
-202.419247 105.854390 876.610000
-202.411568 105.954638 875.610000
-202.390276 106.053392 874.610000
-202.186865 106.111468 873.610000
-201.902678 106.144609 872.610000
-201.623189 106.185329 871.610000
-201.350958 106.252850 870.610000
-201.146862 106.319085 869.610000
-201.143830 106.416661 868.610000
-201.082993 106.504040 867.610000
-201.092762 106.603577 866.610000
-200.857016 106.656924 865.610000
-200.462915 106.678758 864.610000
-200.428882 106.774456 863.610000
-200.659876 106.920718 862.610000
-200.247482 106.943585 861.610000
-199.987773 106.995468 860.610000
-199.587595 107.022394 859.610000
-199.486505 107.102348 858.610000
-198.947033 107.017612 857.610000
-198.827601 107.048859 856.610000
-198.591420 107.019201 855.610000
-198.638278 107.153911 854.610000
-198.704180 107.319476 853.610000
-198.562782 107.463562 852.610000
-198.406939 107.599344 851.610000
-198.133140 107.689358 850.610000
-197.984311 107.784056 849.610000
-197.458338 107.768791 848.610000
-197.446438 107.863095 847.610000
-197.116274 107.857274 846.610000
-197.319600 107.991330 845.610000
-196.972350 108.027679 844.610000
-196.443041 108.031707 843.610000
-195.868570 108.026586 842.610000
-195.444399 108.014524 841.610000
-195.218783 108.121865 840.610000
-194.956016 108.171950 839.610000
-194.451486 108.174017 838.610000
-193.895293 108.204678 837.610000
-193.449918 108.185954 836.610000
-193.185703 108.237046 835.610000
-193.239977 108.344661 834.610000
-192.803873 108.365159 833.610000
-192.211707 108.377761 832.610000
-191.490967 108.322151 831.610000
-190.907825 108.324441 830.610000
-190.452763 108.351988 829.610000
-190.173342 108.433878 828.610000
-189.835377 108.431552 827.610000
-189.439155 108.453696 826.610000
-189.003168 108.474412 825.610000
-188.564302 108.494753 824.610000
-187.839973 108.463345 823.610000
-187.196691 108.447080 822.610000
-186.688085 108.394929 821.610000
-186.376049 108.485824 820.610000
-185.762373 108.485232 819.610000
-185.149402 108.477586 818.610000
-184.471874 108.453013 817.610000
-184.639321 108.580740 816.610000
-184.816887 108.710252 815.610000
-186.179492 109.088091 814.610000
-186.449670 109.211931 813.610000
-186.549214 109.329372 812.610000
-186.026523 109.309453 811.610000
-185.164366 109.261988 810.610000
-184.304369 109.207213 809.610000
-183.081367 109.038904 808.610000
-182.705582 109.117313 807.610000
-182.053070 108.967554 806.610000
-174.909336 108.840088 786.572000
