-123.026  98.7839  28.6082
-123.298  98.6329  29.6082
-121.525  98.5357  30.6082
-121.826  98.3797  31.6082
-119.169  99.4024  32.6082
-119.669  99.1164  33.6082
-118.182  99.0029  34.6082
-116.913  98.8897  35.6082
-117.614  98.5518  36.6082
-116.516  98.4393  37.6082
-117.662  97.6779  38.6082
-116.15  98.2503  39.6082
-114.982  98.4972  40.6082
-115.626  98.8933  41.6082
-115.891  97.768  42.6082
-115.898  97.8544  43.6082
-116.304  97.5989  44.6082
-118.01  97.1653  45.6082
-118.429  96.4956  46.6082
-118.415  96.2647  47.6082
-117.901  96.896  48.6082
-117.744  96.8422  49.6082
-118.477  97.3555  50.6082
-118.759  96.6041  51.6082
-118.829  96.3216  52.6082
-118.374  97.2875  53.6082
-118.823  96.5581  54.6082
-118.948  96.8197  55.6082
-118.954  97.6057  56.6082
-119.296  97.1161  57.6082
-119.657  96.2058  58.6082
-119.672  96.3167  59.6082
-119.703  96.5384  60.6082
-119.487  97.6474  61.6082
-119.76  97.4003  62.6082
-120.032  96.7923  63.6082
-120.051  96.7237  64.6082
-120.053  97.0951  65.6082
-120.391  96.5235  66.6082
-121.496  96.1555  67.6082
-121.416  97.4915  68.6082
-121.676  97.0137  69.6082
-121.822  96.5781  70.6082
-122.023  96.1277  71.6082
-122.314  95.6464  72.6082
-123.251  95.3314  73.6082
-123.325  94.9654  74.6082
-123.333  95.0479  75.6082
-123.329  95.0724  76.6082
-123.388  94.6645  77.6082
-124.232  94.3825  78.6082
-124.248  94.544  79.6082
-124.139  94.2926  80.6082
-124.761  94.9718  81.6082
-124.773  94.5108  82.6082
-124.757  94.0965  83.6082
-125.363  93.8185  84.6082
-125.246  93.5258  85.6082
-125.873  93.5876  86.6082
-125.762  93.2374  87.6082
-126.3  93.6229  88.6082
-126.059  93.5428  89.6082
-126.393  93.837  90.6082
-126.002  93.6987  91.6082
-126.289  93.4958  92.6082
-125.873  93.3487  93.6082
-126.055  93.6427  94.6082
-126.196  93.4667  95.6082
-125.718  93.546  96.6082
-125.93  93.559  97.6082
-126.127  93.468  98.6082
-125.636  93.4513  99.6082
-125.794  93.9236  100.608
-125.887  93.9326  101.608
-126.157  93.9436  102.608
-125.77  94.0429  103.608
-125.807  93.9759  104.608
-125.806  93.8969  105.608
-125.979  93.9558  106.608
-126.185  94.0398  107.608
-125.632  94.1149  108.608
-125.736  94.0619  109.608
-125.823  93.9259  110.608
-125.905  93.7659  111.608
-126.023  93.7269  112.608
-126.229  94.1989  113.608
-125.654  94.2693  114.608
-125.728  94.2113  115.608
-125.925  94.2263  116.608
-126.181  94.2773  117.608
-126.44  94.2363  118.608
-126.783  94.611  119.608
-126.259  94.2874  120.608
-126.456  94.3804  121.608
-126.667  94.4594  122.608
-127.069  95.4587  123.608
-127.654  97.8494  124.608
-126.422  94.789  125.608
-126.444  94.734  126.608
-126.426  94.565  127.608
-126.393  94.502  128.608
-126.344  94.556  129.608
-126.286  94.66  130.608
-125.556  94.9751  131.608
-125.55  95.0201  132.608
-125.638  94.8931  133.608
-125.849  94.8461  134.608
-126.163  94.4724  135.608
-126.404  94.4864  136.608
-126.47  94.4264  137.608
-126.541  94.4314  138.608
-126.622  94.5764  139.608
-126.666  94.7004  140.608
-125.836  94.4712  141.608
-125.844  94.5382  142.608
-126.614  94.4387  143.608
-126.808  94.9624  144.608
-126.863  95.0274  145.608
-126.92  95.0634  146.608
-126.881  94.5097  147.608
-126.952  94.4557  148.608
-126.935  94.13  149.608
-127.025  94.251  150.608
-127.123  94.251  151.608
-127.897  94.1105  152.608
-127.9  94.2155  153.608
-127.906  94.3125  154.608
-127.759  93.3155  155.608
-127.81  93.2485  156.608
-128.656  93.6448  157.608
-128.618  93.2546  158.608
-128.741  93.6708  159.608
-128.863  94.0869  160.608
-129.088  94.7081  161.608
-130.071  95.6813  162.608
-129.896  94.2724  163.608
-129.795  93.314  164.608
-129.891  93.3111  165.608
-129.99  93.3101  166.608
-129.885  92.4477  167.608
-130.663  92.4088  168.608
-130.636  91.4077  169.608
-130.772  91.3117  170.608
-130.835  91.4177  171.608
-130.805  91.1077  172.608
-130.933  91.0837  173.608
-131.087  91.0077  174.608
-131.108  90.4597  175.608
-131.182  90.3787  176.608
-131.321  90.3997  177.608
-131.488  90.4657  178.608
-131.617  90.5837  179.608
-131.727  90.7267  180.608
-131.837  90.6797  181.608
-131.948  90.5237  182.608
-132.054  90.6107  183.608
-132.159  90.7807  184.608
-132.158  90.8497  185.608
-131.932  89.9086  186.608
-131.843  89.8746  187.608
-131.745  89.8156  188.608
-131.609  89.8366  189.608
-131.436  89.9366  190.608
-131.281  90.0216  191.608
-131.147  90.0886  192.608
-131.089  90.0866  193.608
-131.052  89.5296  194.608
-131.087  89.4556  195.608
-131.117  89.4046  196.608
-131.184  89.3686  197.608
-132.094  89.2407  198.608
-132.454  89.2227  199.608
-133.263  89.1887  200.608
-133.861  89.1337  201.608
-134.004  89.0307  202.608
-134.161  89.0017  203.608
-135.256  90.0041  204.608
-135.649  92.0234  205.608
-135.709  92.0784  206.608
-135.732  92.1404  207.608
-135.699  92.2144  208.608
-136.621  94.5558  209.608
-136.18  92.2495  210.608
-135.665  90.3234  211.608
-134.894  88.6487  212.608
-134.36  88.4467  213.608
-135.267  88.6151  214.608
-135.253  87.4109  215.608
-135.307  86.7689  216.608
-135.394  86.6099  217.608
-136.229  87.559  218.608
-136.272  88.5694  219.608
-136.42  88.1406  220.608
-136.511  87.2332  221.608
-136.473  86.7545  222.608
-136.369  85.3305  223.608
-137.343  84.6219  224.608
-137.493  84.4309  225.608
-137.624  84.5419  226.608
-137.755  84.6809  227.608
-137.723  84.6569  228.608
-137.672  84.6149  229.608
-137.672  84.5969  230.608
-138.543  84.5462  231.608
-138.572  84.5692  232.608
-138.573  83.654  233.608
-138.586  83.605  234.608
-138.579  83.0625  235.608
-138.565  83.0725  236.608
-138.543  83.1085  237.608
-138.585  83.1175  238.608
-138.65  83.1175  239.608
-138.68  83.0805  240.608
-138.693  83.0285  241.608
-138.703  83.0295  242.608
-138.712  83.0585  243.608
-138.764  83.0545  244.608
-138.829  83.0415  245.608
-138.841  82.9365  246.608
-138.837  82.8015  247.608
-138.886  82.7925  248.608
-138.957  82.8375  249.608
-138.996  82.9495  250.608
-139.008  83.1225  251.608
-139.015  82.6629  252.608
-139.034  82.0453  253.608
-139.043  81.9304  254.608
-138.089  81.4157  255.608
-138.085  81.3697  256.608
-138.105  81.3717  257.608
-138.122  81.3737  258.608
-138.111  80.9005  259.608
-138.129  80.8855  260.608
-138.134  80.3673  261.608
-138.167  80.3553  262.608
-138.212  80.4033  263.608
-138.239  80.3933  264.608
-138.233  80.2633  265.608
-139.166  80.1266  266.608
-139.165  79.1765  267.608
-139.188  79.1905  268.608
-139.185  79.2595  269.608
-139.187  79.2985  270.608
-139.206  79.2195  271.608
-139.229  79.1545  272.608
-139.273  79.1535  273.608
-140.261  79.1187  274.608
-140.273  79.0527  275.608
-140.279  78.9917  276.608
-140.241  78.9717  277.608
-140.192  78.0031  278.608
-140.217  77.9871  279.608
-140.232  77.5024  280.608
-141.175  77.116  281.608
-141.146  77.208  282.608
-141.196  76.988  283.608
-141.246  76.767  284.608
-141.282  76.667  285.608
-141.318  76.569  286.608
-141.375  76.681  287.608
-141.433  76.3312  288.608
-141.457  76.2272  289.608
-141.477  76.1002  290.608
-142.482  76.0338  291.608
-142.497  75.9658  292.608
-142.511  75.485  293.608
-142.516  75.477  294.608
-142.558  75.335  295.608
-142.608  75.164  296.608
-141.661  75.1153  297.608
-141.713  75.1133  298.608
-141.803  74.7374  299.608
-141.904  74.3936  300.608
-141.945  74.2596  301.608
-141.961  74.0196  302.608
-142.009  73.8846  303.608
-142.071  73.7936  304.608
-141.121  73.3527  305.608
-141.198  73.4367  306.608
-141.314  73.3757  307.608
-141.453  73.2277  308.608
-141.539  73.1357  309.608
-141.579  72.6109  310.608
-140.585  72.6289  311.608
-140.593  72.1803  312.608
-140.619  72.1273  313.608
-140.631  71.5267  314.608
-140.694  71.4857  315.608
-140.794  71.5327  316.608
-140.875  71.5357  317.608
-140.935  71.4877  318.608
-140.993  71.4287  319.608
-141.048  71.3567  320.608
-142.12  70.7355  321.608
-142.113  70.0688  322.608
-142.154  69.9938  323.608
-142.265  70.1248  324.608
-142.34  69.726  325.608
-142.363  69.687  326.608
-142.375  69.1732  327.608
-142.387  69.1312  328.608
-142.379  69.0922  329.608
-142.315  69.0612  330.608
-142.277  69.0392  331.608
-143.409  69.0348  332.608
-143.453  69.0118  333.608
-143.473  68.4049  334.608
-143.496  68.3049  335.608
-143.536  68.3779  336.608
-143.569  68.4289  337.608
-143.547  68.3309  338.608
-143.524  68.2299  339.608
-143.499  68.1149  340.608
-143.479  68.0189  341.608
-143.527  68.1899  342.608
-143.574  68.3529  343.608
-143.622  68.2769  344.608
-143.67  68.1999  345.608
-143.626  68.1349  346.608
-143.583  68.0699  347.608
-143.564  67.66  348.608
-143.545  67.7271  349.608
-143.504  67.757  350.608
-143.461  67.3102  351.608
-143.422  67.2242  352.608
-143.383  67.1272  353.608
-143.33  67.0362  354.608
-143.274  66.9452  355.608
-143.241  67.0582  356.608
-143.213  67.1492  357.608
-143.234  67.0422  358.608
-143.255  66.9342  359.608
-143.188  66.9642  360.608
-143.096  67.0322  361.608
-143.034  67.0682  362.608
-142.981  67.0922  363.608
-142.938  67.0582  364.608
-142.898  67.0012  365.608
-142.847  66.9982  366.608
-142.79  67.0192  367.608
-142.768  67.1092  368.608
-142.763  67.2362  369.608
-142.727  67.2332  370.608
-142.669  67.1462  371.608
-142.582  67.0482  372.608
-142.476  66.9412  373.608
-142.425  66.9232  374.608
-142.422  66.9772  375.608
-142.397  66.9672  376.608
-142.353  66.8972  377.608
-142.302  66.8422  378.608
-142.245  66.8042  379.608
-142.202  66.7992  380.608
-142.175  66.8362  381.608
-142.253  66.8412  382.608
-142.477  66.8002  383.608
-142.458  66.6062  384.608
-142.03  66.6281  385.608
-141.719  66.4201  386.608
-141.515  66.438  387.608
-141.246  66.5121  388.608
-140.828  67.1879  389.608
-140.509  67.2899  390.608
-140.418  67.1579  391.608
-140.339  67.0219  392.608
-140.291  66.8719  393.608
-140.226  66.7959  394.608
-140.107  66.9649  395.608
-140.014  67.0359  396.608
-140.03  66.7099  397.608
-139.999  66.9128  398.608
-139.73  66.9238  399.608
-139.484  67.3896  400.608
-139.384  67.2616  401.608
-139.292  67.1556  402.608
-139.217  67.1056  403.608
-139.14  67.0536  404.608
-139.021  66.9466  405.608
-138.901  66.8396  406.608
-138.747  66.7526  407.608
-138.592  66.6646  408.608
-138.378  66.5186  409.608
-138.163  66.3726  410.608
-138.078  66.1816  411.608
-137.998  66.4635  412.608
-136.77  66.4518  413.608
-136.601  66.4428  414.608
-136.432  66.2948  415.608
-136.264  66.1318  416.608
-136.08  65.9658  417.608
-135.893  65.7998  418.608
-135.743  66.1745  419.608
-134.535  66.1162  420.608
-134.389  65.9762  421.608
-134.246  65.8232  422.608
-134.085  65.7312  423.608
-133.919  65.6562  424.608
-133.726  65.8417  425.608
-132.455  65.5274  426.608
-132.195  65.4114  427.608
-131.92  65.3984  428.608
-131.741  65.2584  429.608
-131.607  65.0584  430.608
-131.413  64.9094  431.608
-131.187  64.7884  432.608
-130.962  64.5494  433.608
-130.736  64.2344  434.608
-130.482  64.0964  435.608
-130.219  64.0054  436.608
-129.953  63.4272  437.608
-129.726  63.3122  438.608
-129.455  63.1452  439.608
-129.141  62.9292  440.608
-128.824  62.7342  441.608
-128.502  62.5592  442.608
-128.155  62.3862  443.608
-127.777  62.2152  444.608
-127.443  62.0352  445.608
-127.138  61.8492  446.608
-127.873  61.6482  447.608
-127.531  61.5432  448.608
-127.182  61.3992  449.608
-126.825  61.2182  450.608
-126.448  61.0272  451.608
-126.032  60.8142  452.608
-126.685  60.5385  453.608
-126.311  59.7298  454.608
-125.906  59.4638  455.608
-125.376  58.925  456.608
-125.976  58.8076  457.608
-125.668  58.0798  458.608
-125.314  57.8348  459.608
-124.756  57.6318  460.608
-124.228  57.4098  461.608
-124.941  57.1002  462.608
-124.563  56.8212  463.608
-124.114  56.8212  464.608
-123.681  56.7892  465.608
-124.48  56.4815  466.608
-124.208  55.6759  467.608
-123.805  54.4698  468.608
-123.367  54.2138  469.608
-123.972  54.6132  470.608
-123.498  54.4902  471.608
-123.127  54.2852  472.608
-122.757  54.0792  473.608
-122.454  53.7742  474.608
-122.154  53.4662  475.608
-123.064  52.9485  476.608
-122.854  52.8535  477.608
-122.497  52.6815  478.608
-122.124  52.5015  479.608
-121.951  51.7858  480.608
-121.805  51.0601  481.608
-121.64  50.7821  482.608
-121.479  50.4981  483.608
-120.059  50.3686  484.608
-119.722  50.3656  485.608
-119.538  49.9466  486.608
-119.371  49.4806  487.608
-119.146  49.3106  488.608
-118.914  49.1736  489.608
-117.612  48.9796  490.608
-117.453  48.8316  491.608
-117.275  49.1602  492.608
-117.111  49.0152  493.608
-115.907  49.0799  494.608
-115.872  48.5638  495.608
-115.729  48.4429  496.608
-115.547  48.4628  497.608
-115.337  48.3538  498.608
-114.001  48.6161  499.608
-113.85  48.4331  500.608
-113.769  48.2651  501.608
-113.709  48.0581  502.608
-113.67  47.8131  503.608
-113.539  47.7251  504.608
-113.303  48.2889  505.608
-113.079  48.1779  506.608
-112.871  47.8189  507.608
-112.678  47.5819  508.608
-113.567  48.396  509.608
-113.352  48.295  510.608
-113.082  48.264  511.608
-113.937  48.267  512.608
-113.772  48.247  513.608
-114.688  48.1648  514.608
-115.628  47.8633  515.608
-115.476  47.5923  516.608
-116.374  47.1973  517.608
-116.123  47.1943  518.608
-116.829  47.3079  519.608
-117.703  46.9339  520.608
-117.656  46.8399  521.608
-118.72  46.4077  522.608
-119.576  46.4199  523.608
-119.341  46.3359  524.608
-120.25  46.1383  525.608
-121.18  45.9395  526.608
-120.973  45.8295  527.608
-120.802  45.7335  528.608
-121.808  45.8955  529.608
-121.814  45.387  530.608
-122.704  45.8108  531.608
-122.496  45.9908  532.608
-122.143  46.0068  533.608
-121.79  46.0228  534.608
-121.695  45.7468  535.608
-121.604  45.4648  536.608
-121.363  45.6028  537.608
-121.115  45.7628  538.608
-120.885  45.9278  539.608
-120.655  46.0938  540.608
-120.518  46.0548  541.608
-120.392  45.9898  542.608
-120.29  45.8048  543.608
-119.094  45.376  544.608
-118.816  45.563  545.608
-118.499  45.832  546.608
-118.335  45.848  547.608
-118.211  45.795  548.608
-116.94  46.0495  549.608
-116.872  46.0825  550.608
-116.751  45.6394  551.608
-116.485  45.6584  552.608
-115.075  45.505  553.608
-114.75  45.57  554.608
-114.621  45.441  555.608
-114.595  45.212  556.608
-114.503  45.295  557.608
-113.264  45.3848  558.608
-113.069  45.6048  559.608
-112.776  46.2738  560.608
-112.602  46.2678  561.608
-112.461  46.0988  562.608
-112.401  45.4828  563.608
-112.344  44.8778  564.608
-112.161  44.9558  565.608
-111.927  45.2488  566.608
-111.73  45.3968  567.608
-111.576  45.3768  568.608
-111.476  45.3558  569.608
-111.449  45.3328  570.608
-111.323  45.3178  571.608
-111.049  45.3148  572.608
-110.803  45.3178  573.608
-110.61  45.3328  574.608
-110.465  45.3208  575.608
-110.42  45.2588  576.608
-110.351  45.2828  577.608
-110.225  45.5068  578.608
-110.08  45.6758  579.608
-108.769  45.5248  580.608
-108.58  45.5068  581.608
-108.472  44.9005  582.608
-108.325  44.7615  583.608
-108.285  44.6165  584.608
-108.218  44.5575  585.608
-108.005  44.9505  586.608
-107.821  45.2255  587.608
-107.709  45.1965  588.608
-107.59  45.1605  589.608
-107.486  44.6063  590.608
-107.307  44.5083  591.608
-107.107  44.3793  592.608
-106.908  44.2613  593.608
-105.59  44.2636  594.608
-105.41  44.4156  595.608
-105.369  44.3946  596.608
-105.329  44.3736  597.608
-105.204  44.4606  598.608
-105.076  44.5506  599.608
-104.837  44.5396  600.608
-104.656  44.0473  601.608
-104.544  43.9703  602.608
-104.432  43.8923  603.608
-104.344  43.8873  604.608
-104.258  43.9003  605.608
-104.158  44.1663  606.608
-104.116  43.962  607.608
-103.952  43.916  608.608
-103.785  43.857  609.608
-102.449  43.6303  610.608
-102.314  43.054  611.608
-102.162  42.978  612.608
-102.022  42.913  613.608
-101.894  43.111  614.608
-101.771  43.423  615.608
-101.741  43.459  616.608
-101.805  42.8908  617.608
-101.757  42.4235  618.608
-101.596  42.4845  619.608
-101.474  41.9473  620.608
-102.486  41.9337  621.608
-102.351  41.9467  622.608
-102.173  42.485  623.608
-102.126  42.525  624.608
-102.14  42.54  625.608
-102.15  42.1987  626.608
-102.13  41.9114  627.608
-102.02  41.511  628.608
-101.811  40.9867  629.608
-101.757  40.3744  630.608
-101.727  40.1874  631.608
-101.661  40.1424  632.608
-101.543  40.2974  633.608
-101.465  40.4304  634.608
-101.455  40.5234  635.608
-101.332  41.0747  636.608
-101.165  41.1307  637.608
-101.056  40.6674  638.608
-100.891  40.5654  639.608
-100.773  40.0111  640.608
-100.627  39.5037  641.608
-100.505  39.0314  642.608
-100.342  39.6048  643.608
-100.253  39.6847  644.608
-100.228  39.6858  645.608
-100.281  38.7641  646.608
-100.062  38.8591  647.608
-99.8567  38.9001  648.608
-99.7329  38.6201  649.608
-99.6236  37.9648  650.608
-99.2891  38.4921  651.608
-99.0905  38.5171  652.608
-99.1769  37.9798  653.608
-99.1572  37.9748  654.608
-99.0653  37.6665  655.608
-98.924  37.7735  656.608
-98.8793  37.1571  657.608
-98.7769  37.0121  658.608
-98.5165  36.9641  659.608
-98.2694  36.9151  660.608
-98.1561  36.8421  661.608
-98.0503  36.7881  662.608
-98.0829  36.4608  663.608
-98.1682  35.6522  664.608
-97.9981  36.0875  665.608
-97.8859  36.0525  666.608
-97.719  36.0885  667.608
-97.5418  36.1365  668.608
-97.3343  35.9485  669.608
-98.5512  34.9922  670.608
-98.4413  34.9932  671.608
-98.3359  35.0042  672.608
-98.2351  35.0402  673.608
-98.135  35.0792  674.608
-98.0356  35.1592  675.608
-97.9365  35.2552  676.608
-97.9212  34.2217  677.608
-97.7517  34.0367  678.608
-97.5621  33.9397  679.608
-97.3614  33.8927  680.608
-97.2525  33.8277  681.608
-97.3313  32.8142  682.608
-98.7392  32.1732  683.608
-98.7159  31.9222  684.608
-98.6231  31.9002  685.608
-98.5318  31.7902  686.608
-98.3527  31.7912  687.608
-98.127  31.8512  688.608
-97.9697  31.7712  689.608
-97.8843  31.5422  690.608
-97.7195  31.9652  691.608
-97.548  32.6142  692.608
-98.7978  32.946  693.608
-98.7105  32.952  694.608
-98.6836  32.5233  695.608
-98.5395  32.6123  696.608
-98.3775  32.6073  697.608
-98.265  31.9646  698.608
-98.1035  31.8766  699.608
-97.9796  31.8886  700.608
-97.8828  31.8886  701.608
-97.8518  31.8576  702.608
-97.8033  31.8736  703.608
-97.7027  32.0326  704.608
-97.6052  32.1367  705.608
-97.519  32.0517  706.608
-97.5003  31.51  707.608
-97.4187  31.0173  708.608
-97.3428  30.4947  709.608
-97.2155  30.2817  710.608
-97.1119  30.1757  711.608
-97.0694  30.3427  712.608
-97.0366  30.4547  713.608
-97.1193  29.91  714.608
-97.0826  29.858  715.608
-96.9157  29.897  716.608
-96.7656  29.894  717.608
-96.6924  29.698  718.608
-96.6154  29.54  719.608
-96.5955  29.1594  720.608
-96.4933  29.2464  721.608
-96.6431  28.7297  722.608
-96.7171  28.6737  723.608
-96.6925  28.3301  724.608
-96.5736  28.4591  725.608
-96.4744  28.7497  726.608
-97.9518  28.3698  727.608
-97.9349  27.9136  728.608
-97.8265  27.9256  729.608
-97.8866  27.3925  730.608
-97.8726  27.3065  731.608
-97.8733  27.4635  732.608
-97.8745  27.6275  733.608
-97.8596  27.5845  734.608
-97.8397  27.4785  735.608
-97.782  27.4385  736.608
-97.7102  27.4235  737.608
-97.6873  26.8443  738.608
-97.5569  26.6903  739.608
-97.6568  26.2382  740.608
-97.7008  26.2932  741.608
-97.8504  25.829  742.608
-98.009  25.3329  743.608
-97.9887  25.4669  744.608
-97.9352  25.6629  745.608
-97.899  25.5979  746.608
-96.4158  25.0581  747.608
-96.4666  24.5035  748.608
-96.4269  24.5775  749.608
-96.4533  24.5515  750.608
-95.0717  24.1789  751.608
-95.2081  23.7899  752.608
-93.7668  23.7678  753.608
-93.9173  23.3666  754.608
-94.0552  23.2556  755.608
-92.6433  22.4841  756.608
-92.6301  21.9168  757.608
-92.592  21.8418  758.608
-92.6105  21.8058  759.608
-92.6415  21.8288  760.608
-92.6979  21.9698  761.608
-92.8008  22.0298  762.608
-93.0115  21.5295  763.608
-93.1213  21.5175  764.608
-93.169  21.0822  765.608
-93.1499  21.0372  766.608
-93.1147  20.8532  767.608
-93.1007  20.7022  768.608
-93.1732  20.6872  769.608
-93.2056  21.1625  770.608
-93.3309  21.2105  771.608
-93.4539  21.2735  772.608
-93.6187  20.9692  773.608
