-94.3161  773.608  -154.732
-195.196  128.487  29.6082
-195.929  128.223  30.6082
-196.23  128.067  31.6082
-196.073  128.026  32.6082
-196.657  130.12  33.6082
-196.695  129.94  34.6082
-196.929  129.711  35.6082
-197.168  129.48  36.6082
-196.626  129.414  37.6082
-196.583  131.548  38.6082
-197.101  131.145  39.6082
-196.703  130.93  40.6082
-196.793  130.471  41.6082
-196.953  129.977  42.6082
-197.186  129.587  43.6082
-196.542  131.533  44.6082
-196.644  131.063  45.6082
-197.159  130.491  46.6082
-197.001  130.006  47.6082
-196.784  129.521  48.6082
-196.404  129.122  49.6082
-195.501  128.844  50.6082
-195.522  128.441  51.6082
-195.076  128.152  52.6082
-195.172  127.712  53.6082
-194.374  127.424  54.6082
-194.094  127.149  55.6082
-193.377  127.017  56.6082
-193.338  126.706  57.6082
-192.675  126.487  58.6082
-192.46  126.293  59.6082
-192.236  126.184  60.6082
-191.565  126.127  61.6082
-190.911  126.039  62.6082
-191.042  125.845  63.6082
-190.583  125.811  64.6082
-190.208  125.738  65.6082
-189.463  125.714  66.6082
-189.172  125.618  67.6082
-188.406  125.634  68.6082
-188.021  125.581  69.6082
-187.06  125.646  70.6082
-186.621  125.594  71.6082
-187.205  125.316  72.6082
-186.747  125.272  73.6082
-187.115  125.097  74.6082
-186.073  125.156  75.6082
-185.47  125.053  76.6082
-185.345  124.884  77.6082
-185.259  124.783  78.6082
-185.118  124.698  79.6082
-185.284  124.569  80.6082
-184.544  124.573  81.6082
-183.885  124.402  82.6082
-184.128  124.084  83.6082
-183.804  123.987  84.6082
-184.412  123.688  85.6082
-184.566  123.367  86.6082
-184.241  123.178  87.6082
-184.297  123.181  88.6082
-184.298  123.16  89.6082
-184.142  123.072  90.6082
-183.985  122.981  91.6082
-183.807  122.869  92.6082
-183.624  122.757  93.6082
-183.299  122.669  94.6082
-183.44  122.493  95.6082
-183.186  122.597  96.6082
-183.398  122.61  97.6082
-183.129  122.609  98.6082
-182.86  122.605  99.6082
-182.495  122.697  100.608
-182.588  122.706  101.608
-182.393  122.807  102.608
-182.684  122.817  103.608
-182.256  122.841  104.608
-182.255  122.762  105.608
-182.428  122.821  106.608
-182.169  122.995  107.608
-181.826  123.06  108.608
-181.93  123.007  109.608
-182.017  122.871  110.608
-181.634  122.801  111.608
-181.752  122.762  112.608
-181.884  122.766  113.608
-181.51  122.816  114.608
-181.584  122.758  115.608
-181.781  122.773  116.608
-181.572  122.914  117.608
-181.831  122.873  118.608
-181.626  122.871  119.608
-181.849  122.891  120.608
-182.046  122.984  121.608
-182.257  123.063  122.608
-182.013  123.223  123.608
-182.146  123.288  124.608
-181.743  123.439  125.608
-181.765  123.384  126.608
-181.747  123.215  127.608
-181.714  123.152  128.608
-181.665  123.206  129.608
-181.607  123.31  130.608
-181.536  123.479  131.608
-181.53  123.524  132.608
-181.152  123.488  133.608
-181.363  123.441  134.608
-181.784  123.529  135.608
-182.177  124.361  136.608
-181.776  124.383  137.608
-181.847  124.388  138.608
-181.928  124.533  139.608
-181.972  124.657  140.608
-180.988  124.893  141.608
-180.996  124.96  142.608
-181.093  125.022  143.608
-181.181  125.084  144.608
-181.369  125.945  145.608
-181.426  125.981  146.608
-181.494  125.889  147.608
-181.565  125.835  148.608
-181.305  126.836  149.608
-181.395  126.957  150.608
-181.023  127.023  151.608
-181.114  127.034  152.608
-180.75  127.981  153.608
-180.756  128.078  154.608
-180.806  128.008  155.608
-180.946  128.718  156.608
-180.999  128.792  157.608
-181.523  128.818  158.608
-181.555  128.769  159.608
-181.663  129.507  160.608
-181.797  129.663  161.608
-181.936  129.829  162.608
-182.007  129.82  163.608
-181.66  130.617  164.608
-181.756  130.614  165.608
-181.855  130.613  166.608
-181.915  130.684  167.608
-181.97  130.766  168.608
-182.091  130.701  169.608
-182.227  130.605  170.608
-182.29  130.711  171.608
-182.807  130.836  172.608
-182.935  130.812  173.608
-183.137  131.525  174.608
-183.232  131.445  175.608
-183.258  130.575  176.608
-183.397  130.596  177.608
-183.564  130.662  178.608
-183.693  130.78  179.608
-183.803  130.923  180.608
-183.913  130.876  181.608
-184.024  130.72  182.608
-184.13  130.807  183.608
-184.235  130.977  184.608
-184.234  131.046  185.608
-184.156  131.041  186.608
-184.067  131.007  187.608
-183.969  130.948  188.608
-184.306  130.936  189.608
-184.133  131.036  190.608
-183.978  131.121  191.608
-184.316  131.155  192.608
-184.258  131.153  193.608
-184.296  131.064  194.608
-184.331  130.99  195.608
-184.361  130.939  196.608
-184.428  130.903  197.608
-184.555  130.892  198.608
-184.443  130.907  199.608
-183.834  130.972  200.608
-184.432  130.917  201.608
-184.622  131.587  202.608
-184.779  131.558  203.608
-184.975  131.723  204.608
-185.61  131.836  205.608
-185.67  131.891  206.608
-185.727  132.735  207.608
-186.168  132.792  208.608
-186.105  132.861  209.608
-185.912  132.911  210.608
-185.595  132.87  211.608
-184.973  132.609  212.608
-184.459  133.198  213.608
-184.57  133.443  214.608
-184.68  133.655  215.608
-185.249  133.477  216.608
-185.336  133.318  217.608
-185.275  133.387  218.608
-185.726  133.444  219.608
-185.914  134.295  220.608
-186.072  134.333  221.608
-186.541  134.327  222.608
-186.536  134.321  223.608
-186.679  134.138  224.608
-186.829  133.947  225.608
-186.96  134.058  226.608
-187.091  134.197  227.608
-187.533  134.173  228.608
-187.956  134.131  229.608
-187.956  134.113  230.608
-187.962  134.1  231.608
-187.991  134.123  232.608
-188.026  134.155  233.608
-188.039  134.106  234.608
-188.048  134.037  235.608
-188.034  134.047  236.608
-188.012  134.083  237.608
-188.054  134.092  238.608
-188.592  134.092  239.608
-189.096  134.055  240.608
-189.109  134.003  241.608
-189.119  134.004  242.608
-189.128  134.033  243.608
-189.18  134.029  244.608
-189.719  134.016  245.608
-189.731  133.911  246.608
-189.727  133.776  247.608
-189.776  133.767  248.608
-189.847  133.812  249.608
-190.36  133.924  250.608
-190.372  134.097  251.608
-190.396  134.111  252.608
-190.431  133.967  253.608
-190.44  133.852  254.608
-190.417  133.771  255.608
-190.413  133.725  256.608
-190.899  132.853  257.608
-190.916  132.855  258.608
-190.93  132.855  259.608
-190.948  132.84  260.608
-190.977  132.795  261.608
-191.01  132.783  262.608
-191.529  132.823  263.608
-191.556  132.813  264.608
-192.024  132.675  265.608
-192.027  132.579  266.608
-192.059  132.576  267.608
-192.556  132.582  268.608
-192.553  132.651  269.608
-192.555  132.69  270.608
-192.574  132.611  271.608
-192.597  132.546  272.608
-192.641  132.545  273.608
-192.681  132.535  274.608
-193.166  132.46  275.608
-193.172  132.399  276.608
-193.134  132.379  277.608
-193.576  132.35  278.608
-193.601  132.334  279.608
-194.098  132.315  280.608
-194.068  132.411  281.608
-194.039  132.503  282.608
-194.089  132.283  283.608
-194.613  132.053  284.608
-194.649  131.953  285.608
-194.685  131.855  286.608
-194.742  131.967  287.608
-194.808  133.023  288.608
-194.832  132.919  289.608
-194.852  132.792  290.608
-195.342  132.717  291.608
-195.831  132.649  292.608
-195.836  132.642  293.608
-195.841  132.634  294.608
-195.883  132.492  295.608
-195.933  132.321  296.608
-196.457  132.281  297.608
-196.509  132.279  298.608
-196.599  132.377  299.608
-196.7  132.507  300.608
-196.741  132.373  301.608
-196.757  132.133  302.608
-196.805  131.998  303.608
-197.341  131.907  304.608
-197.413  131.931  305.608
-197.49  132.015  306.608
-198.08  131.954  307.608
-198.219  131.806  308.608
-198.305  131.714  309.608
-198.354  131.663  310.608
-198.39  131.654  311.608
-198.407  132.652  312.608
-198.906  132.607  313.608
-198.934  132.48  314.608
-199.471  132.447  315.608
-199.571  132.494  316.608
-199.652  132.497  317.608
-200.186  132.458  318.608
-200.244  132.399  319.608
-200.299  132.327  320.608
-200.333  132.207  321.608
-200.334  132.014  322.608
-200.375  131.939  323.608
-200.96  132.078  324.608
-201.043  132.153  325.608
-201.54  132.122  326.608
-201.56  132.082  327.608
-201.572  132.04  328.608
-201.564  132.001  329.608
-201.5  131.97  330.608
-201.935  131.956  331.608
-201.987  131.961  332.608
-202.031  131.938  333.608
-202.051  131.805  334.608
-202.074  131.705  335.608
-202.114  131.778  336.608
-202.147  131.829  337.608
-202.599  131.74  338.608
-202.576  131.639  339.608
-202.551  131.524  340.608
-202.531  131.428  341.608
-202.579  131.599  342.608
-202.626  131.762  343.608
-202.674  131.686  344.608
-202.722  131.609  345.608
-202.678  131.544  346.608
-202.635  131.479  347.608
-202.616  131.543  348.608
-202.597  131.61  349.608
-203.03  131.648  350.608
-202.987  131.675  351.608
-202.948  131.589  352.608
-202.909  131.492  353.608
-202.856  131.401  354.608
-202.8  131.31  355.608
-202.767  131.423  356.608
-202.739  131.514  357.608
-202.76  131.407  358.608
-202.781  131.299  359.608
-202.714  131.329  360.608
-202.622  131.397  361.608
-203.034  131.441  362.608
-202.981  131.465  363.608
-202.938  131.431  364.608
-202.898  131.374  365.608
-202.847  131.371  366.608
-202.79  131.392  367.608
-202.768  131.482  368.608
-203.236  131.618  369.608
-203.2  131.615  370.608
-203.142  131.528  371.608
-203.055  131.43  372.608
-202.949  131.323  373.608
-202.898  131.305  374.608
-202.895  131.359  375.608
-202.87  131.349  376.608
-202.826  131.279  377.608
-202.775  131.224  378.608
-202.691  132.241  379.608
-202.648  132.236  380.608
-202.621  132.273  381.608
-204.593  132.344  382.608
-207.185  132.386  383.608
-207.639  132.208  384.608
-207.685  131.773  385.608
-207.374  131.565  386.608
-207.17  131.583  387.608
-203.539  132.629  388.608
-201.701  132.756  389.608
-201.382  132.858  390.608
-200.818  132.701  391.608
-200.739  132.565  392.608
-200.691  132.415  393.608
-200.561  133.393  394.608
-199.97  133.529  395.608
-199.877  133.6  396.608
-198.475  133.175  397.608
-198.363  133.923  398.608
-197.622  133.893  399.608
-197.376  133.885  400.608
-197.276  133.757  401.608
-197.184  133.651  402.608
-196.637  133.56  403.608
-196.935  134.559  404.608
-196.345  134.402  405.608
-196.225  134.295  406.608
-195.6  134.158  407.608
-195.445  134.07  408.608
-195.231  133.924  409.608
-195.016  133.778  410.608
-194.931  133.587  411.608
-194.851  133.395  412.608
-194.687  133.374  413.608
-194.613  132.372  414.608
-194.444  132.224  415.608
-194.276  132.061  416.608
-194.092  131.895  417.608
-193.905  131.729  418.608
-193.825  130.636  419.608
-193.672  130.55  420.608
-193.526  130.41  421.608
-192.911  130.224  422.608
-192.81  129.144  423.608
-192.644  129.069  424.608
-192.434  128.781  425.608
-192.253  127.433  426.608
-191.993  127.317  427.608
-191.718  127.304  428.608
-191.539  127.164  429.608
-191.405  126.964  430.608
-191.237  125.825  431.608
-191.011  125.704  432.608
-190.786  125.465  433.608
-190.56  125.15  434.608
-190.306  125.012  435.608
-190.052  123.932  436.608
-189.81  123.827  437.608
-189.583  123.712  438.608
-189.312  123.545  439.608
-188.998  123.329  440.608
-188.681  123.134  441.608
-188.359  122.959  442.608
-188.003  121.797  443.608
-187.625  121.626  444.608
-187.291  121.446  445.608
-186.986  121.26  446.608
-186.667  121.105  447.608
-186.325  121  448.608
-185.976  120.856  449.608
-185.619  120.675  450.608
-185.242  120.484  451.608
-184.826  120.271  452.608
-183.95  120.031  453.608
-183.584  119.696  454.608
-183.154  118.449  455.608
-182.632  118.384  456.608
-182.16  118.276  457.608
-182.325  118.005  458.608
-181.971  117.76  459.608
-181.413  117.557  460.608
-181.359  117.319  461.608
-180.992  117  462.608
-180.614  116.721  463.608
-180.165  116.721  464.608
-179.688  115.692  465.608
-179.881  115.331  466.608
-179.592  114.999  467.608
-179.156  114.74  468.608
-178.718  114.484  469.608
-178.244  114.362  470.608
-177.77  114.239  471.608
-177.399  114.034  472.608
-177.029  113.828  473.608
-176.726  113.523  474.608
-176.426  113.215  475.608
-176.208  113.103  476.608
-175.998  113.008  477.608
-175.641  112.836  478.608
-175.785  113.645  479.608
-175.579  113.402  480.608
-175.4  113.149  481.608
-175.235  112.871  482.608
-175.101  113.601  483.608
-174.8  113.54  484.608
-174.463  113.537  485.608
-174.287  114.132  486.608
-174.12  113.666  487.608
-173.895  113.496  488.608
-173.655  114.373  489.608
-173.474  114.228  490.608
-173.315  114.08  491.608
-173.126  114.949  492.608
-172.962  114.804  493.608
-172.88  114.424  494.608
-172.801  114.921  495.608
-172.658  114.8  496.608
-172.476  114.82  497.608
-172.677  115.757  498.608
-172.446  115.555  499.608
-172.295  115.372  500.608
-172.133  116.223  501.608
-172.073  116.016  502.608
-172.034  115.771  503.608
-171.903  115.683  504.608
-171.569  116.791  505.608
-171.345  116.68  506.608
-171.137  116.321  507.608
-170.944  116.084  508.608
-170.646  116.957  509.608
-170.431  116.856  510.608
-170.161  116.825  511.608
-169.944  116.8  512.608
-169.779  116.78  513.608
-169.624  116.651  514.608
-169.494  116.284  515.608
-169.208  117.027  516.608
-168.996  117.02  517.608
-169.214  117.083  518.608
-168.844  117.093  519.608
-168.587  117.067  520.608
-168.54  116.973  521.608
-168.459  116.868  522.608
-168.365  115.696  523.608
-168.13  115.612  524.608
-167.875  115.7  525.608
-167.627  115.765  526.608
-167.42  115.655  527.608
-167.249  115.559  528.608
-167.164  115.499  529.608
-167.072  115.454  530.608
-166.984  114.611  531.608
-166.776  114.791  532.608
-166.423  114.807  533.608
-166.541  114.872  534.608
-165.975  114.547  535.608
-165.884  114.265  536.608
-165.741  113.377  537.608
-165.493  113.537  538.608
-165.263  113.702  539.608
-165.033  113.868  540.608
-165.368  113.87  541.608
-164.851  112.736  542.608
-164.749  112.551  543.608
-165.121  112.398  544.608
-164.843  112.585  545.608
-164.526  112.854  546.608
-164.835  112.903  547.608
-164.775  111.805  548.608
-164.693  111.818  549.608
-164.625  111.851  550.608
-164.414  111.873  551.608
-164.148  111.892  552.608
-163.841  111.943  553.608
-163.561  110.961  554.608
-163.906  110.849  555.608
-163.88  110.62  556.608
-163.788  110.703  557.608
-163.655  110.978  558.608
-163.487  110.143  559.608
-163.269  110.344  560.608
-163.095  110.338  561.608
-163.428  110.177  562.608
-163.293  110.029  563.608
-163.636  109.9  564.608
-163.453  109.978  565.608
-163.228  109.199  566.608
-163.031  109.347  567.608
-162.877  109.327  568.608
-163.251  109.306  569.608
-163.698  109.283  570.608
-163.572  109.268  571.608
-163.298  109.265  572.608
-163.526  109.268  573.608
-163.333  109.283  574.608
-164.136  109.271  575.608
-164.091  109.209  576.608
-164.022  109.233  577.608
-164.843  109.457  578.608
-164.699  109.626  579.608
-164.505  109.642  580.608
-164.316  109.624  581.608
-164.142  109.487  582.608
-163.995  109.348  583.608
-164.429  109.203  584.608
-164.836  109.144  585.608
-164.623  109.537  586.608
-164.912  109.812  587.608
-164.801  109.783  588.608
-164.672  110.902  589.608
-164.502  110.817  590.608
-164.797  110.727  591.608
-164.597  110.598  592.608
-164.398  110.48  593.608
-164.69  110.64  594.608
-164.953  111.98  595.608
-164.912  111.959  596.608
-164.872  111.938  597.608
-164.747  112.025  598.608
-165.093  112.131  599.608
-164.854  112.12  600.608
-166.509  112.165  601.608
-168.292  112.154  602.608
-168.653  112.092  603.608
-168.51  113.348  604.608
-168.424  113.361  605.608
-169.271  113.677  606.608
-169.644  113.968  607.608
-169.48  113.922  608.608
-169.313  113.863  609.608
-169.605  113.793  610.608
-169.421  113.688  611.608
-169.269  113.612  612.608
-169.186  112.252  613.608
-169.058  112.45  614.608
-168.935  112.762  615.608
-170.325  112.848  616.608
-170.34  112.751  617.608
-170.242  112.755  618.608
-171.028  112.849  619.608
-170.857  112.783  620.608
-170.68  112.634  621.608
-170.545  112.647  622.608
-170.425  112.715  623.608
-170.378  112.755  624.608
-170.392  112.77  625.608
-171.292  112.932  626.608
-171.249  111.762  627.608
-171.081  111.832  628.608
-170.341  111.77  629.608
-170.229  111.628  630.608
-170.673  111.449  631.608
-170.607  111.404  632.608
-171.437  111.576  633.608
-171.833  111.717  634.608
-171.822  111.81  635.608
-171.757  111.891  636.608
-171.59  111.947  637.608
-171.424  111.954  638.608
-171.222  113.23  639.608
-171.046  113.146  640.608
-171.317  113.125  641.608
-171.137  113.123  642.608
-171.978  113.259  643.608
-171.89  113.339  644.608
-172.811  113.373  645.608
-172.749  113.392  646.608
-172.53  113.487  647.608
-172.325  113.528  648.608
-172.201  113.248  649.608
-172.034  113.063  650.608
-171.757  113.12  651.608
-171.559  113.145  652.608
-172.061  113.095  653.608
-172.988  113.123  654.608
-172.839  113.285  655.608
-172.697  113.392  656.608
-172.595  113.246  657.608
-172.492  113.101  658.608
-172.232  113.053  659.608
-171.985  113.004  660.608
-171.872  112.931  661.608
-171.766  112.877  662.608
-171.741  113.02  663.608
-171.71  113.152  664.608
-171.598  113.117  665.608
-171.486  113.082  666.608
-171.319  113.118  667.608
-171.615  113.183  668.608
-171.408  112.995  669.608
-171.2  112.807  670.608
-171.09  112.808  671.608
-171.459  112.835  672.608
-171.358  112.871  673.608
-171.258  112.91  674.608
-171.632  113.007  675.608
-171.533  113.103  676.608
-171.385  113.008  677.608
-171.216  112.823  678.608
-171.026  112.726  679.608
-170.826  112.679  680.608
-171.19  112.63  681.608
-171.137  112.555  682.608
-171.058  112.65  683.608
-170.961  112.867  684.608
-170.868  112.845  685.608
-170.777  112.735  686.608
-171.071  112.753  687.608
-170.846  112.813  688.608
-170.624  114.217  689.608
-170.538  113.988  690.608
-170.448  113.943  691.608
-170.35  114.124  692.608
-170.257  114.231  693.608
-170.643  114.262  694.608
-170.534  114.3  695.608
-170.39  114.389  696.608
-170.228  114.384  697.608
-170.033  114.208  698.608
-170.345  114.145  699.608
-170.221  114.157  700.608
-170.124  114.157  701.608
-170.093  114.126  702.608
-170.518  114.166  703.608
-169.944  114.301  704.608
-169.846  114.405  705.608
-169.76  114.32  706.608
-169.659  114.245  707.608
-169.495  114.219  708.608
-169.81  114.187  709.608
-169.683  113.974  710.608
-170.053  113.893  711.608
-170.01  114.06  712.608
-169.977  114.172  713.608
-169.978  114.094  714.608
-169.941  114.042  715.608
-169.84  112.564  716.608
-169.69  112.561  717.608
-169.617  112.365  718.608
-169.54  112.207  719.608
-169.911  112.309  720.608
-169.809  112.396  721.608
-169.877  112.346  722.608
-169.951  112.29  723.608
-169.844  112.413  724.608
-169.725  112.542  725.608
-169.708  112.366  726.608
-170.098  113.742  727.608
-169.99  113.751  728.608
-169.882  113.763  729.608
-169.852  113.695  730.608
-169.838  113.609  731.608
-169.838  113.766  732.608
-169.84  113.93  733.608
-169.825  113.887  734.608
-169.805  113.781  735.608
-169.747  113.741  736.608
-170.527  115.324  737.608
-170.414  115.21  738.608
-170.283  115.056  739.608
-169.82  115.036  740.608
-170.337  115.124  741.608
-170.396  115.125  742.608
-170.464  115.094  743.608
-170.444  115.228  744.608
-170.39  115.424  745.608
-170.354  115.359  746.608
-170.332  115.09  747.608
-170.395  113.453  748.608
-170.355  113.527  749.608
-170.382  113.501  750.608
-170.473  113.375  751.608
-170.603  111.904  752.608
-170.648  112.104  753.608
-170.732  112.172  754.608
-170.87  112.061  755.608
-170.939  110.406  756.608
-171.342  110.317  757.608
-171.304  110.242  758.608
-171.322  110.206  759.608
-171.353  110.229  760.608
-171.883  110.378  761.608
-171.986  110.438  762.608
-172.139  110.408  763.608
-172.249  110.396  764.608
-172.239  110.431  765.608
-172.22  110.386  766.608
-172.185  110.202  767.608
-172.171  110.051  768.608
-172.243  110.036  769.608
-172.333  110.041  770.608
-173.406  110.106  771.608
-174.003  110.177  772.608
-176.005  110.376  773.608
