-85.945667 62.359440 1459.763747
-88.859404 62.841421 1458.722925
-91.674462 63.346365 1457.697157
-94.392322 63.873796 1456.686296
-97.014462 64.423238 1455.690196
-99.542362 64.994215 1454.708710
-101.977501 65.586249 1453.741691
-104.321359 66.198865 1452.788993
-106.575415 66.831587 1451.850468
-108.741148 67.483938 1450.925972
-110.820037 68.155442 1450.015355
-112.813562 68.845622 1449.118473
-114.723202 69.554002 1448.235179
-116.550436 70.280106 1447.365325
-118.296745 71.023457 1446.508765
-119.963606 71.783579 1445.665353
-121.552500 72.559996 1444.834942
-123.064906 73.352232 1444.017385
-124.502303 74.159809 1443.212535
-125.866170 74.982253 1442.420247
-127.157987 75.819085 1441.640373
-128.379232 76.669831 1440.872766
-129.531387 77.534013 1440.117281
-130.615929 78.411156 1439.373770
-131.634338 79.300783 1438.642087
-132.588093 80.202418 1437.922084
-133.478674 81.115584 1437.213617
-134.307560 82.039804 1436.516537
-135.076231 82.974604 1435.830698
-135.786165 83.919506 1435.155954
-136.438842 84.874034 1434.492158
-137.035741 85.837712 1433.839163
-137.578342 86.810063 1433.196822
-138.068124 87.790611 1432.564990
-138.506566 88.778879 1431.943519
-138.895148 89.774392 1431.332262
-139.235349 90.776673 1430.731074
-139.528648 91.785246 1430.139807
-139.776524 92.799634 1429.558315
-139.980458 93.819361 1428.986451
-140.141928 94.843951 1428.424068
-140.262413 95.872926 1427.871020
-140.343393 96.905812 1427.327161
-140.386348 97.942132 1426.792343
-140.392756 98.981409 1426.266420
-140.364096 100.023166 1425.749245
-140.301849 101.066929 1425.240672
-140.207494 102.112219 1424.740554
-140.082509 103.158562 1424.248744
-139.928375 104.205480 1423.765096
-139.746570 105.252498 1423.289463
-139.538574 106.299138 1422.821698
-139.305865 107.344925 1422.361655
-139.049925 108.389382 1421.909188
-138.772231 109.432034 1421.464149
-138.474263 110.472402 1421.026391
-138.157501 111.510012 1420.595769
-137.823424 112.544387 1420.172136
-137.473510 113.575051 1419.755344
-137.109240 114.601527 1419.345248
-136.732093 115.623338 1418.941700
-136.343548 116.640010 1418.544555
-135.945084 117.651064 1418.153664
-135.538181 118.656025 1417.768883
-135.124318 119.654417 1417.390063
-134.704975 120.645763 1417.017059
-134.281630 121.629587 1416.649724
-133.855763 122.605413 1416.287911
-133.428853 123.572763 1415.931474
-133.002380 124.531163 1415.580265
-132.577824 125.480135 1415.234139
-132.156662 126.419203 1414.892948
-131.740375 127.347892 1414.556546
-131.330442 128.265723 1414.224787
-130.928342 129.172222 1413.897523
-130.535555 130.066912 1413.574608
-130.153247 130.949428 1413.255887
-129.781333 131.819858 1412.941168
-129.419415 132.678399 1412.630254
-129.067093 133.525249 1412.322944
-128.723971 134.360607 1412.019039
-128.389650 135.184672 1411.718340
-128.063731 135.997641 1411.420647
-127.745818 136.799713 1411.125761
-127.435510 137.591087 1410.833483
-127.132411 138.371960 1410.543614
-126.836122 139.142531 1410.255954
-126.546244 139.902999 1409.970303
-126.262380 140.653562 1409.686463
-125.984132 141.394418 1409.404234
-125.711100 142.125765 1409.123417
-125.442888 142.847802 1408.843812
-125.179097 143.560728 1408.565221
-124.919328 144.264740 1408.287443
-124.663183 144.960037 1408.010280
-124.410265 145.646817 1407.733532
-124.160175 146.325279 1407.457000
-123.912515 146.995621 1407.180484
-123.666886 147.658042 1406.903785
-123.422891 148.312739 1406.626705
-123.180131 148.959911 1406.349043
-122.938208 149.599757 1406.070600
-122.696724 150.232475 1405.791177
-122.455280 150.858263 1405.510574
-122.213479 151.477319 1405.228593
-121.970923 152.089842 1404.945034
-121.727212 152.696031 1404.659697
-121.481949 153.296083 1404.372384
-121.234736 153.890197 1404.082894
-120.985174 154.478572 1403.791029
-120.732866 155.061405 1403.496590
-120.477413 155.638895 1403.199376
-120.218416 156.211241 1402.899189
-119.955479 156.778640 1402.595829
-119.688202 157.341292 1402.289097
-119.416187 157.899394 1401.978794
-119.139036 158.453145 1401.664720
-118.856351 159.002743 1401.346676
-118.567734 159.548387 1401.024462
-118.272787 160.090274 1400.697880
-117.971110 160.628604 1400.366730
-117.662307 161.163575 1400.030813
-117.345979 161.695384 1399.689929
-117.021727 162.224231 1399.343879
-116.689155 162.750314 1398.992463
-116.347862 163.273831 1398.635483
-115.997452 163.794980 1398.272739
-115.637525 164.313960 1397.904032
-115.267684 164.830969 1397.529162
-114.887531 165.346206 1397.147930
-114.496667 165.859868 1396.760137
-114.094695 166.372155 1396.365584
-113.681215 166.883264 1395.964070
-113.255830 167.393395 1395.555397
-112.818142 167.902744 1395.139366
-112.367752 168.411512 1394.715776
-111.904262 168.919895 1394.284430
-111.427275 169.428093 1393.845126
-110.936391 169.936303 1393.397667
-110.431212 170.444725 1392.941853
-109.911342 170.953556 1392.477484
-109.376380 171.462994 1392.004361
-108.825929 171.973239 1391.522286
-108.259591 172.484489 1391.031057
-107.676968 172.996941 1390.530477
-107.077661 173.510795 1390.020345
-106.461273 174.026248 1389.500463
-105.827404 174.543500 1388.970631
-105.175657 175.062747 1388.430650
-104.505634 175.584189 1387.880321
-103.817041 176.107946 1387.319528
