34.7546 -254.763 811.291
34.4717 -254.62 812.224
34.2011 -254.474 813.15
34.0024 -254.308 814.046
33.8041 -254.143 814.943
33.0924 -254.144 815.949
32.3636 -254.152 816.96
32.058 -254.012 817.912
31.7524 -253.873 818.864
31.1666 -253.85 819.784
30.5401 -253.844 820.698
30.5499 -253.594 821.61
30.5651 -253.342 822.522
29.9701 -253.306 823.501
29.348 -253.281 824.482
29.1262 -253.095 825.486
28.9301 -252.899 826.492
28.4509 -252.841 827.388
27.8738 -252.831 828.246
27.6198 -252.69 829.13
27.4126 -252.53 830.018
26.7742 -252.528 830.935
25.9368 -252.599 831.866
25.6525 -252.46 832.786
25.5204 -252.263 833.703
25.0996 -252.18 834.609
24.5844 -252.135 835.512
24.0368 -252.097 836.432
23.4668 -252.064 837.366
22.897 -252.046 838.244
22.3274 -252.034 839.101
21.8496 -251.975 840
21.4567 -251.872 840.939
20.8961 -251.848 841.827
20.1714 -251.9 842.666
19.4822 -251.934 843.523
18.8356 -251.945 844.402
18.0758 -252.004 845.266
17.1666 -252.127 846.108
16.4349 -252.171 846.986
15.974 -252.097 847.916
15.3018 -252.117 848.799
14.2744 -252.297 849.598
13.4685 -252.377 850.447
13.1041 -252.262 851.393
12.637 -252.187 852.336
11.9333 -252.205 853.273
11.3449 -252.173 854.229
11.0655 -252.01 855.231
10.6241 -251.922 856.187
9.94618 -251.943 857.073
9.32201 -251.942 857.964
8.90662 -251.857 858.872
8.46099 -251.779 859.797
7.88675 -251.73 860.793
7.44368 -251.626 861.812
7.3376 -251.377 862.886
7.13744 -251.172 863.931
6.21197 -251.301 864.77
5.49168 -251.333 865.678
5.54721 -250.995 866.849
5.54924 -250.685 867.997
4.61857 -250.832 868.776
3.6946 -250.977 869.557
3.19669 -250.911 870.508
2.69918 -250.846 871.458
2.05583 -250.822 872.464
1.41061 -250.798 873.471
1.05392 -250.673 874.443
0.711317 -250.543 875.414
0.00841667 -250.551 876.384
-0.723326 -250.571 877.354
-1.108 -250.461 878.309
-1.4495 -250.335 879.26
-2.10446 -250.323 880.238
-2.80762 -250.329 881.219
-3.34636 -250.266 882.218
-3.85131 -250.19 883.22
-4.52045 -250.176 884.224
-5.19894 -250.166 885.229
-5.49137 -250.008 886.228
-5.66227 -249.805 887.225
-6.12385 -249.717 888.21
-6.68287 -249.667 889.19
-7.2945 -249.641 890.159
-7.92888 -249.625 891.121
-8.5082 -249.582 892.103
-9.0617 -249.528 893.094
-9.49736 -249.42 894.112
-9.86592 -249.283 895.144
-10.3628 -249.203 896.15
-10.9405 -249.158 897.139
-11.4165 -249.073 898.134
-11.8176 -248.957 899.132
-12.3914 -248.906 900.141
-13.109 -248.908 901.156
-13.5198 -248.786 902.192
-13.7747 -248.601 903.238
-14.3307 -248.548 904.229
-15.2094 -248.635 905.159
-15.7517 -248.578 906.142
-15.8763 -248.343 907.19
-16.2211 -248.2 908.208
-16.8719 -248.187 909.185
-17.4213 -248.133 910.165
-17.8097 -248.017 911.151
-18.2844 -247.935 912.131
-18.9156 -247.916 913.098
-19.4353 -247.85 914.086
-19.7161 -247.679 915.117
-20.1421 -247.573 916.119
-20.9197 -247.62 917.049
-21.424 -247.552 918.02
-21.5297 -247.316 919.047
-21.7387 -247.117 920.079
-22.3083 -247.055 921.122
-22.8201 -246.972 922.158
-23.0995 -246.807 923.167
-23.4444 -246.668 924.171
-24.1206 -246.663 925.155
-24.77 -246.649 926.131
-25.239 -246.579 927.06
-25.7144 -246.509 927.995
-26.2492 -246.45 928.974
-26.7569 -246.38 929.959
-26.8951 -246.146 931.021
-27.055 -245.922 932.079
-27.7675 -245.939 933.031
-28.4747 -245.954 933.983
-28.7128 -245.773 934.994
-28.9509 -245.591 936.004
-29.5022 -245.541 936.977
-30.0609 -245.493 937.949
-30.3883 -245.348 938.955
-30.7093 -245.199 939.963
-31.1967 -245.11 940.988
-31.6843 -245.021 942.011
-32.0412 -244.884 943.026
-32.3798 -244.741 944.04
-32.9755 -244.709 945.006
-33.6157 -244.696 945.964
-34.0057 -244.578 946.959
-34.337 -244.434 947.962
-34.8547 -244.373 948.925
-35.3876 -244.32 949.882
-35.7642 -244.189 950.901
-36.0886 -244.034 951.941
-36.5736 -243.948 952.949
-37.1206 -243.89 953.944
-37.5748 -243.793 954.948
-37.9856 -243.679 955.955
-38.4751 -243.599 956.95
-39.0051 -243.536 957.937
-39.4053 -243.418 958.944
-39.7265 -243.267 959.963
-40.1742 -243.159 960.999
-40.7084 -243.082 962.045
-41.1555 -242.977 963.073
-41.5354 -242.849 964.087
-42.0018 -242.762 965.072
-42.5053 -242.694 966.043
-42.8729 -242.568 967.032
-43.1003 -242.384 968.039
-43.4892 -242.265 969.033
-44.0647 -242.223 970.01
-44.5129 -242.124 971.013
-44.7974 -241.954 972.05
-45.1829 -241.829 973.06
-45.7182 -241.774 974.028
-46.1579 -241.677 975.013
-46.4307 -241.508 976.028
-46.776 -241.371 977.027
-47.2617 -241.296 977.995
-47.6783 -241.19 978.983
-47.9387 -241.011 980.014
-48.2885 -240.872 981.028
-48.8748 -240.837 981.994
-49.3603 -240.758 982.977
-49.5231 -240.542 984.01
-49.7678 -240.36 985.034
-50.3143 -240.301 986.028
-50.8028 -240.221 987.02
-51.0211 -240.04 988.002
-51.2693 -239.869 988.988
-51.6871 -239.757 989.999
-52.0797 -239.635 991.011
-52.2738 -239.433 992.037
-52.4967 -239.242 993.059
-53.0187 -239.178 994.04
-53.4833 -239.089 995.033
-53.7 -238.891 996.075
-53.9193 -238.695 997.113
-54.3058 -238.591 998.048
-54.6918 -238.487 998.982
-54.9301 -238.288 1000.06
-55.1828 -238.097 1001.13
-55.5958 -237.993 1002.1
-56.0088 -237.889 1003.07
-56.2317 -237.69 1004.13
-56.4392 -237.484 1005.19
-56.7877 -237.359 1006.15
-57.152 -237.245 1007.09
-57.3784 -237.055 1008.12
-57.5818 -236.851 1009.16
-58.0835 -236.782 1010.13
-58.6477 -236.741 1011.09
-58.822 -236.527 1012.13
-58.9706 -236.301 1013.18
-59.3904 -236.196 1014.16
-59.8909 -236.127 1015.13
-60.1787 -235.962 1016.15
-60.3923 -235.764 1017.19
-60.832 -235.674 1018.15
-61.3667 -235.629 1019.08
-61.6089 -235.446 1020.1
-61.7091 -235.199 1021.16
-62.077 -235.067 1022.17
-62.5982 -235.001 1023.16
-62.9201 -234.847 1024.19
-63.1138 -234.635 1025.25
-63.5391 -234.534 1026.23
-64.1328 -234.512 1027.15
-64.4894 -234.382 1028.14
-64.6454 -234.16 1029.19
-65.0266 -234.038 1030.18
-65.6219 -234.012 1031.13
-66.067 -233.912 1032.13
-66.353 -233.731 1033.21
-66.756 -233.612 1034.22
-67.3051 -233.569 1035.17
-67.733 -233.466 1036.16
-67.9846 -233.276 1037.22
-68.3373 -233.138 1038.23
-68.8561 -233.087 1039.16
-69.3061 -232.994 1040.14
-69.6288 -232.825 1041.23
-70.1002 -232.728 1042.26
-70.7445 -232.715 1043.23
-71.2647 -232.645 1044.23
-71.4859 -232.441 1045.3
-71.7843 -232.275 1046.34
-72.3101 -232.224 1047.28
-72.783 -232.146 1048.24
-73.0772 -231.971 1049.31
-73.4344 -231.825 1050.35
-74.0474 -231.803 1051.31
-74.6137 -231.757 1052.29
-74.9329 -231.584 1053.38
-75.3024 -231.435 1054.46
-76.0024 -231.441 1055.44
-76.6582 -231.428 1056.42
-76.8791 -231.234 1057.45
-77.1562 -231.065 1058.47
-77.6177 -230.981 1059.44
-78.076 -230.892 1060.42
-78.4125 -230.731 1061.5
-78.753 -230.572 1062.57
-79.3338 -230.528 1063.56
-79.9148 -230.483 1064.56
-80.1543 -230.294 1065.6
-80.3825 -230.1 1066.64
-80.906 -230.031 1067.65
-81.4484 -229.969 1068.64
-81.6992 -229.785 1069.68
-81.9182 -229.587 1070.73
-82.4433 -229.514 1071.75
-83.0131 -229.46 1072.76
-83.2225 -229.26 1073.8
-83.3595 -229.033 1074.84
-83.8562 -228.953 1075.84
-84.4395 -228.909 1076.83
-84.687 -228.722 1077.88
-84.8382 -228.494 1078.94
-85.2226 -228.37 1079.94
-85.6893 -228.282 1080.94
-85.9474 -228.1 1081.98
-86.1204 -227.88 1083.04
-86.5177 -227.759 1084.05
-87.0196 -227.682 1085.05
-87.2351 -227.482 1086.1
-87.2924 -227.214 1087.17
-87.5861 -227.055 1088.18
-88.0266 -226.969 1089.13
-88.2351 -226.773 1090.15
-88.2795 -226.499 1091.23
-88.4557 -226.291 1092.25
-88.736 -226.135 1093.23
-88.9212 -225.93 1094.25
-89.0217 -225.683 1095.31
-89.2113 -225.48 1096.33
-89.4935 -225.323 1097.31
-89.6527 -225.111 1098.33
-89.664 -224.833 1099.37
-89.7521 -224.598 1100.37
-89.945 -224.417 1101.31
-90.053 -224.192 1102.3
-90.0325 -223.898 1103.36
-90.0876 -223.643 1104.38
-90.2741 -223.458 1105.33
-90.3661 -223.227 1106.32
-90.2812 -222.91 1107.37
-90.2704 -222.634 1108.38
-90.4323 -222.45 1109.29
-90.5232 -222.229 1110.24
-90.4141 -221.902 1111.3
-90.3739 -221.613 1112.31
-90.5482 -221.44 1113.2
-90.6629 -221.234 1114.13
-90.5299 -220.883 1115.23
-90.4415 -220.559 1116.31
-90.5663 -220.343 1117.29
-90.6601 -220.115 1118.27
-90.5568 -219.805 1119.27
-90.4784 -219.506 1120.26
-90.6037 -219.295 1121.22
-90.7162 -219.076 1122.19
-90.6599 -218.769 1123.25
-90.6093 -218.464 1124.31
-90.6833 -218.226 1125.3
-90.7551 -217.986 1126.29
-90.6569 -217.679 1127.28
-90.5592 -217.369 1128.29
-90.607 -217.126 1129.26
-90.6587 -216.885 1130.23
-90.6217 -216.586 1131.28
-90.5798 -216.285 1132.34
-90.6242 -216.049 1133.27
-90.6762 -215.818 1134.2
-90.5334 -215.473 1135.28
-90.3643 -215.112 1136.37
-90.3914 -214.851 1137.38
-90.4531 -214.608 1138.37
-90.3223 -214.277 1139.41
-90.1507 -213.928 1140.46
-90.1272 -213.648 1141.46
-90.1408 -213.389 1142.44
-90.0655 -213.085 1143.46
-89.9619 -212.765 1144.49
-89.973 -212.491 1145.52
-90.0272 -212.234 1146.55
-89.948 -211.927 1147.58
-89.8086 -211.596 1148.6
-89.7843 -211.318 1149.6
-89.8186 -211.067 1150.58
-89.782 -210.779 1151.59
-89.7024 -210.468 1152.63
-89.6933 -210.193 1153.64
-89.7059 -209.929 1154.63
-89.679 -209.639 1155.67
-89.6217 -209.333 1156.72
-89.6555 -209.08 1157.71
-89.7678 -208.87 1158.64
-89.7551 -208.593 1159.65
-89.6164 -208.247 1160.74
-89.5663 -207.951 1161.76
-89.6166 -207.712 1162.72
-89.6202 -207.438 1163.74
-89.5611 -207.118 1164.84
-89.5639 -206.844 1165.86
-89.6574 -206.639 1166.75
-89.6742 -206.385 1167.72
-89.5622 -206.045 1168.82
-89.5079 -205.74 1169.87
-89.5646 -205.499 1170.84
-89.5686 -205.228 1171.85
-89.4547 -204.893 1172.93
-89.4032 -204.591 1173.97
-89.5144 -204.377 1174.92
-89.579 -204.137 1175.91
-89.5037 -203.817 1176.98
-89.4678 -203.517 1178.04
-89.5791 -203.29 1179.04
-89.6628 -203.052 1180.04
-89.6216 -202.764 1181.05
-89.614 -202.492 1182.05
-89.7909 -202.306 1182.99
-89.9304 -202.104 1183.94
-89.7921 -201.758 1185.02
-89.6756 -201.422 1186.1
-89.7859 -201.194 1187.1
-89.8841 -200.961 1188.11
-89.7898 -200.647 1189.13
-89.7046 -200.337 1190.16
-89.9123 -200.174 1191.06
-90.1198 -200.01 1191.96
-90.0639 -199.702 1193.02
-90.0058 -199.392 1194.09
-90.0978 -199.17 1195.04
-90.196 -198.949 1196
-90.2501 -198.689 1197.04
-90.3004 -198.426 1198.09
-90.3421 -198.187 1199.03
-90.3832 -197.951 1199.96
-90.3208 -197.64 1201.03
-90.2586 -197.329 1202.09
-90.3651 -197.12 1203.02
-90.5038 -196.93 1203.92
-90.4545 -196.63 1204.96
-90.3582 -196.302 1206.04
-90.4774 -196.086 1207.01
-90.6601 -195.903 1207.95
-90.5946 -195.594 1208.99
-90.4403 -195.239 1210.09
-90.5189 -195.012 1211.04
-90.6948 -194.838 1211.94
-90.7048 -194.569 1212.95
-90.632 -194.254 1214.01
-90.6217 -193.975 1215.03
-90.6463 -193.715 1216.03
-90.646 -193.444 1217.03
-90.6305 -193.166 1218.04
-90.66 -192.911 1219.02
-90.7219 -192.674 1219.99
-90.6799 -192.387 1220.99
-90.5501 -192.059 1222.03
-90.6429 -191.844 1222.95
-90.9434 -191.741 1223.76
-91.0567 -191.539 1224.67
-90.9647 -191.228 1225.69
-90.9008 -190.929 1226.71
-90.8717 -190.644 1227.72
-90.8567 -190.365 1228.74
-90.8615 -190.093 1229.75
-90.8372 -189.811 1230.76
-90.7679 -189.516 1231.75
-90.7229 -189.229 1232.75
-90.7237 -188.959 1233.75
-90.7266 -188.694 1234.74
-90.7355 -188.438 1235.7
-90.7141 -188.167 1236.67
-90.6194 -187.856 1237.69
-90.5448 -187.554 1238.7
-90.5238 -187.274 1239.71
-90.485 -186.991 1240.7
-90.3826 -186.697 1241.65
-90.2886 -186.405 1242.59
-90.2299 -186.123 1243.56
-90.1755 -185.839 1244.53
-90.1432 -185.547 1245.57
-90.1175 -185.264 1246.58
-90.1099 -185.005 1247.52
-90.0827 -184.738 1248.47
-89.8713 -184.393 1249.45
-89.6676 -184.053 1250.42
-89.592 -183.762 1251.39
-89.5138 -183.47 1252.36
-89.3401 -183.132 1253.37
-89.1664 -182.794 1254.37
