-26.3598  -93.9931  30.5805
-13.5254  -94.0795  30.5805
-0.689291  -94.2759  30.5805
12.0593  -95.1556  30.5805
24.8729  -96.4061  30.5805
37.5773  -98.2376  30.5805
49.8563  -101.319  30.5805
61.5849  -106.5  30.5805
72.202  -113.664  30.5805
77.6791  -124.823  30.5805
73.188  -141.118  30.5805
66.6386  -156.781  30.5805
56.0084  -169.612  30.5805
42.3279  -179.615  30.5805
28.2883  -189.146  30.5805
12.3965  -194.426  30.5805
-4.46405  -195.637  30.5805
-21.4296  -196.204  30.5805
-38.3651  -196.496  30.5805
-58.0615  -193.684  30.5805
-77.2874  -188.465  30.5805
-96.5346  -183.199  30.5805
-115.725  -177.876  30.5805
-134.994  -172.67  30.5805
-153.905  -166.454  30.5805
-170.261  -155.416  30.5805
-181.688  -139.283  30.5805
-185.861  -119.892  30.5805
-177.318  -107.013  30.5805
-164.411  -98.4958  30.5805
-149.355  -95.6353  30.5805
-133.406  -95.0375  30.5805
-117.835  -93.4844  30.5805
-102.143  -93.0754  30.5805
-86.3432  -93.4756  30.5805
-70.6542  -93.4995  30.5805
-54.9105  -93.6927  30.5805
-39.1809  -93.8443  30.5805
s
-29.2495  -94.056  35.2819
-16.2173  -94.4621  35.2819
-3.19366  -94.9635  35.2819
9.82769  -95.7573  35.2819
22.743  -97.3952  35.2819
35.5629  -99.8289  35.2819
48.184  -103.016  35.2819
59.9163  -108.475  35.2819
71.2419  -115.071  35.2819
76.5755  -126.203  35.2819
67.8927  -140.022  35.2819
58.0625  -153.208  35.2819
47.18  -165.639  35.2819
34.9508  -176.518  35.2819
22.1692  -187.209  35.2819
7.66969  -194.102  35.2819
-8.8766  -195.494  35.2819
-25.2423  -196.386  35.2819
-41.7284  -195.885  35.2819
-60.996  -192.698  35.2819
-79.8811  -187.611  35.2819
-98.7356  -182.337  35.2819
-117.605  -177.191  35.2819
-136.476  -172.026  35.2819
-154.956  -165.653  35.2819
-170.994  -154.755  35.2819
-182.506  -139.048  35.2819
-187.195  -120.221  35.2819
-178.685  -107.316  35.2819
-165.693  -99.4905  35.2819
-150.797  -96.0898  35.2819
-135.258  -94.2378  35.2819
-119.882  -92.1407  35.2819
-104.458  -91.4321  35.2819
-88.8611  -92.3075  35.2819
-73.3515  -92.6581  35.2819
-57.8161  -93.1511  35.2819
-42.2812  -93.6466  35.2819
s
-47.9573  -94.7024  49.386
-38.9428  -95.4841  49.386
-29.9304  -96.3571  49.386
-20.9039  -97.1868  49.386
-11.9211  -98.1508  49.386
-2.89142  -98.9575  49.386
6.12669  -99.86  49.386
14.6078  -102.713  49.386
22.5003  -107.209  49.386
30.2127  -111.933  49.386
25.2956  -125.054  49.386
20.0846  -138.073  49.386
12.8767  -150.017  49.386
3.61576  -160.563  49.386
-6.34266  -170.427  49.386
-16.7255  -179.741  49.386
-29.319  -184.691  49.386
-43.4257  -184.237  49.386
-57.1661  -181.939  49.386
-74.0391  -178.895  49.386
-90.9087  -175.858  49.386
-107.748  -172.644  49.386
-124.468  -168.842  49.386
-140.907  -164.028  49.386
-157.04  -158.227  49.386
-171.852  -149.77  49.386
-182.358  -136.609  49.386
-186.873  -120.133  49.386
-178.814  -108.957  49.386
-166.805  -102.475  49.386
-153.389  -99.0696  49.386
-139.728  -96.3225  49.386
-126.19  -92.9809  49.386
-112.536  -91.053  49.386
-98.6375  -91.4251  49.386
-84.7341  -92.1821  49.386
-70.868  -93.0142  49.386
-56.9914  -94.0681  49.386
s
-80.1151  -97.6323  68.1915
-73.1887  -99.4222  68.1915
-66.2569  -101.201  68.1915
-59.3566  -103.091  68.1915
-52.5179  -105.185  68.1915
-45.6781  -107.307  68.1915
-38.9811  -109.789  68.1915
-32.6097  -113.048  68.1915
-26.3696  -116.545  68.1915
-20.161  -120.102  68.1915
-22.9196  -129.472  68.1915
-27.3078  -138.064  68.1915
-34.0893  -145.128  68.1915
-41.7513  -151.082  68.1915
-49.8216  -156.664  68.1915
-58.355  -161.3  68.1915
-67.4948  -164.503  68.1915
-77.0982  -166.279  68.1915
-86.8043  -166.199  68.1915
-99.24  -165.775  68.1915
-111.627  -165.292  68.1915
-124.051  -164.217  68.1915
-135.939  -160.888  68.1915
-147.104  -155.368  68.1915
-157.98  -149.383  68.1915
-168.008  -142.132  68.1915
-175.538  -132.406  68.1915
-180.139  -120.872  68.1915
-174.547  -112.534  68.1915
-165.983  -107.079  68.1915
-156.517  -103.42  68.1915
-146.635  -100.627  68.1915
-136.838  -97.9111  68.1915
-127.086  -94.6227  68.1915
-117.241  -92.0849  68.1915
-107.243  -92.4557  68.1915
-97.1426  -94.2489  68.1915
-87.0702  -95.9526  68.1915
s
-102.515  -91.9324  86.997
-96.3286  -93.7144  86.997
-90.3214  -96.0541  86.997
-84.4752  -98.7759  86.997
-78.9512  -102.07  86.997
-73.6901  -105.821  86.997
-68.8531  -110.036  86.997
-65.3537  -115.372  86.997
-63.0882  -121.412  86.997
-61.9727  -127.725  86.997
-63.4845  -134.206  86.997
-67.3409  -139.665  86.997
-72.3115  -144.17  86.997
-77.8015  -148.067  86.997
-83.5333  -151.546  86.997
-89.4692  -154.715  86.997
-95.5091  -157.683  86.997
-101.655  -160.389  86.997
-108.026  -162.542  86.997
-117.293  -165.255  86.997
-126.647  -164.907  86.997
-135.135  -160.655  86.997
-142.781  -154.826  86.997
-150.361  -149.002  86.997
-157.95  -143.127  86.997
-164.714  -136.405  86.997
-170.869  -129.064  86.997
-176.286  -121.434  86.997
-172.905  -114.629  86.997
-166.741  -109.697  86.997
-159.93  -105.819  86.997
-152.707  -102.73  86.997
-145.481  -99.5182  86.997
-138.261  -96.4304  86.997
-131.021  -93.4158  86.997
-123.829  -89.9136  86.997
-116.447  -88.6051  86.997
-108.793  -90.4481  86.997
s
-107.058  -91.377  105.802
-101.701  -92.613  105.802
-96.5615  -94.4076  105.802
-91.7314  -96.9396  105.802
-86.9487  -99.7265  105.802
-82.7393  -103.109  105.802
-79.5081  -107.38  105.802
-77.1633  -112.378  105.802
-75.3316  -117.501  105.802
-74.5162  -122.927  105.802
-74.7911  -129.328  105.802
-76.8118  -135.34  105.802
-80.601  -140.506  105.802
-85.2442  -144.889  105.802
-90.2203  -148.945  105.802
-95.354  -152.755  105.802
-100.36  -156.812  105.802
-105.939  -159.742  105.802
-112.108  -161.512  105.802
-120.797  -162.591  105.802
-129.28  -160.889  105.802
-136.975  -156.828  105.802
-144.032  -151.513  105.802
-150.576  -145.702  105.802
-156.985  -139.691  105.802
-163.408  -133.689  105.802
-169.831  -127.704  105.802
-174.963  -121.087  105.802
-172.161  -114.435  105.802
-166.924  -109.248  105.802
-160.72  -105.334  105.802
-153.915  -102.562  105.802
-147.02  -99.9124  105.802
-140.144  -97.2407  105.802
-133.267  -94.5934  105.802
-126.392  -91.876  105.802
-119.506  -89.3351  105.802
-112.383  -90.1315  105.802
s
