26.107  -267.914  840.637
35.3584  -263.885  843.15
42.9181  -257.19  844.931
47.8513  -248.371  845.738
49.7368  -238.476  845.525
48.1352  -228.482  844.235
42.3858  -223.297  842.059
34.7309  -221.645  839.582
26.951  -220.695  837.123
19.4187  -222.941  834.994
11.9007  -225.31  832.88
3.87236  -227.849  830.624
-4.16315  -230.378  828.364
-11.4309  -234.36  826.455
-15.0883  -241.733  825.924
-14.7847  -250.124  826.688
-10.8955  -259.582  828.635
-3.58119  -266.407  831.421
6.12139  -269.547  834.645
16.1665  -270.468  837.796
37.827  -264.333  819.272
48.1347  -258.532  821.03
55.978  -249.682  822.136
60.8308  -238.845  822.541
63.1577  -227.184  822.398
62.5817  -215.354  821.667
53.2169  -211.64  819.601
43.026  -211.4  817.551
32.8254  -211.038  815.493
23.5756  -214.533  813.827
14.7599  -219.69  812.333
5.61459  -225.019  810.783
-3.49937  -230.378  809.241
-12.308  -236.141  807.78
-16.2288  -245.727  807.496
-13.0917  -255.697  808.643
-5.26511  -263.296  810.604
5.22056  -266.791  812.882
16.069  -268.823  815.157
27.0747  -267.142  817.269
44.3707  -262.672  796.648
56.7851  -257.06  797.72
66.6122  -247.632  798.441
70.4857  -234.635  798.488
72.4673  -221.081  798.336
73.4902  -207.488  798.089
63.2338  -205.442  797.033
52.6864  -209.064  796.094
42.1327  -212.452  795.147
31.8722  -216.53  794.247
21.7884  -221.116  793.378
11.4795  -225.775  792.488
1.21069  -230.49  791.603
-9.09958  -235.198  790.714
-15.3778  -243.975  790.324
-12.6984  -254.712  790.86
-2.95545  -261.467  791.986
8.78555  -264.115  793.203
20.6492  -266.238  794.418
32.6578  -265.414  795.572
56.9063  -258.869  774.188
69.8571  -253.02  774.188
76.5151  -241.053  774.188
78.8056  -226.998  774.188
81.1253  -212.952  774.188
81.6406  -198.897  774.188
71.4919  -194.942  774.188
60.3308  -196.381  774.188
50.435  -201.502  774.188
40.6874  -207.081  774.188
30.9726  -212.788  774.188
20.1182  -219.144  774.188
9.25774  -225.483  774.188
-1.60447  -231.812  774.188
-11.3897  -239.409  774.188
-10.9823  -251.253  774.188
1.12944  -258.161  774.188
15.1205  -261.394  774.188
29.3196  -263.445  774.188
43.6085  -264.045  774.188
38.3348  -252.598  747.458
49.4043  -251.731  747.458
59.6168  -247.046  747.458
69.7891  -242.322  747.458
78.9186  -236.106  747.458
80.8476  -225.301  747.458
72.2367  -221.265  747.458
62.6662  -222.595  747.458
53.07  -224.07  747.458
43.4585  -225.629  747.458
33.8511  -227.167  747.458
23.5548  -228.811  747.458
13.2822  -230.46  747.458
2.98789  -232.109  747.458
-7.30575  -234.043  747.458
-11.0781  -242.891  747.458
-2.98502  -248.439  747.458
7.30067  -250.227  747.458
17.5697  -252.06  747.458
27.919  -252.708  747.458
36.8074  -239.39  720.728
48.3373  -238.232  720.728
58.9373  -233.669  720.728
69.1977  -228.274  720.728
78.8085  -221.987  720.728
80.6724  -210.894  720.728
71.7826  -207.973  720.728
62.2231  -208.811  720.728
52.6826  -209.543  720.728
43.146  -210.254  720.728
33.6051  -210.987  720.728
23.9184  -211.727  720.728
14.2505  -212.496  720.728
4.55946  -213.231  720.728
-5.18288  -213.898  720.728
-10.1317  -221.24  720.728
-5.25091  -230.081  720.728
5.03849  -234.184  720.728
15.1212  -238.462  720.728
25.8825  -240.094  720.728
29.6777  -199.458  693.187
