-62.5376 -201.346 1349.22
-65.0279 -210.249 1318.63
-67.162 -213.791 1293.68
-69.2678 -215.57 1273.13
-85.2591 -224.237 1252.13
-91.7 -229.67 1230.33
-98.0001 -233.226 1207.78
-102.9 -236.393 1185.01
-107.558 -240.02 1162.09
-112.955 -242.794 1138.56
-117.018 -244.183 1114.64
-119.407 -245.393 1090.72
-104.097 -258.059 1062.37
-85.3833 -265.757 1034.41
-69.2869 -271.808 1005.9
-52.2546 -275.9 977.681
-33.6863 -276.389 949.924
-17.0351 -275.254 921.824
-0.0694555 -273.905 894.129
16.826 -271.953 866.887
-47.2627 -193.153 1339.91
-51.3328 -202.194 1313.01
-55.1393 -206.726 1290.8
-57.9718 -208.038 1271.64
-73.7891 -220.068 1251.78
-79.6894 -227.089 1230.67
-86.0272 -233.431 1209.04
-90.8531 -238.058 1186.85
-96.2384 -242.747 1164.29
-102.764 -247.443 1141.2
-107.376 -249.526 1117.5
-110.047 -251.662 1093.86
-94.5668 -263.513 1065.57
-75.5062 -269.816 1037.65
-59.3739 -274.667 1009.17
-42.9483 -277.585 980.816
-25.6744 -276.586 952.64
-10.144 -273.798 924.125
6.02548 -271.969 896.264
22.6354 -269.782 869.065
-38.5493 -183.886 1327.32
-42.7432 -192.105 1304.76
-46.4398 -195.396 1285.31
-48.8199 -197.693 1269.34
-63.6431 -212.99 1250.62
-69.5127 -220.823 1229.98
-74.4743 -229.023 1209.18
-79.5665 -235.898 1187.73
-85.0696 -242.895 1165.91
-91.7993 -249.38 1143.39
-97.2424 -253.122 1120.09
-99.7677 -255.589 1096.72
-84.2073 -265.888 1068.4
-65.0438 -271.656 1040.66
-48.9347 -275.007 1012.18
-33.1703 -276.401 983.652
-17.6475 -274.116 954.974
-3.77685 -270.919 926.043
12.0743 -269.094 898.263
28.4591 -265.587 871.018
-35.5876 -174.598 1313.33
-38.6724 -180.44 1294.39
-41.0923 -183.23 1279.08
-42.6178 -184.83 1266.29
-55.2379 -203.902 1248.87
-60.6834 -212.992 1228.8
-65.2217 -222.193 1208.52
-69.6425 -230.209 1187.66
-74.6055 -239.909 1166.75
-80.4704 -248.676 1145.09
-86.6029 -255.583 1122.54
-90.275 -258.467 1099.23
-73.5109 -266.842 1071.04
-54.5418 -271.327 1043.29
-38.3603 -272.24 1014.71
-24.2483 -272.293 985.77
-10.4095 -269.152 956.682
2.65311 -266.201 927.736
18.3967 -264.532 900.159
33.0478 -259.83 872.276
-34.0191 -165.798 1299.78
-36.6127 -169.108 1284.04
-37.8043 -169.855 1272.02
-39.576 -170.458 1262.73
-47.9308 -192.369 1246.44
-53.3682 -202.55 1226.88
-57.299 -212.851 1207.14
-61.1451 -222.805 1187.03
-64.9076 -233.179 1166.67
-69.7243 -244.131 1145.89
-74.9538 -254.375 1124.44
-78.6466 -260.361 1101.98
-62.4589 -266.199 1073.47
-43.956 -267.68 1045.37
-29.6363 -266.871 1016.29
-16.8137 -265.495 987.011
-4.58216 -262.709 957.701
8.20109 -260.002 928.91
22.3498 -257.523 900.825
36.7115 -252.07 872.918
-39.9032 -149.732 1272.95
-42.6459 -150.503 1265.73
-45.1026 -150.4 1260.74
-46.4884 -150.315 1257.3
-44.2002 -175.549 1242.48
-47.4562 -187.928 1223.83
-50.7493 -200.323 1204.89
-53.6803 -211.829 1185.46
-56.7623 -224.084 1165.85
-61.1736 -236.198 1145.62
-64.1885 -247.796 1125.09
-66.4639 -258.369 1104.09
-50.7589 -261.361 1075.28
-34.7426 -260.365 1046.45
-21.8428 -258.706 1017.14
-11.8284 -256.859 987.211
-1.4966 -254.402 957.53
10.1911 -251.89 928.535
21.6094 -249.251 899.504
33.7942 -244.375 870.819
-65.5814 -141.868 1254.37
-65.5814 -141.868 1254.37
-65.5814 -141.868 1254.37
-65.5814 -141.868 1254.37
-50.1729 -158.956 1238
-50.6181 -171.957 1219.74
-49.5794 -185.456 1201.54
-49.4801 -198.455 1182.96
-51.7092 -211.945 1163.93
-54.9983 -225.595 1144.41
-56.1824 -238.143 1124.62
-56.2045 -249.952 1104.56
-42.6291 -252.508 1075.52
-28.5669 -250.037 1046.23
-18.1736 -247.996 1016.41
-9.67785 -247.101 986.361
-0.348564 -245.272 956.59
8.07724 -243.65 926.656
17.5367 -242.591 897.084
28.942 -238.238 868.09
-76.8447 -143.569 1254.37
-76.8447 -143.569 1254.37
-76.8447 -143.569 1254.37
-76.8447 -143.569 1254.37
-66.8882 -150.888 1235.01
-61.0592 -159.915 1216
-55.9179 -171.547 1197.66
-53.2589 -184.781 1179.42
-51.034 -198.656 1161.14
-53.5463 -213.001 1142.01
-53.631 -225.909 1122.62
-50.4657 -238.214 1103.46
-38.8281 -240.12 1074.12
-27.5037 -238.115 1044.42
-18.0815 -237.217 1014.66
-11.3605 -237.216 984.308
-3.31401 -236.395 954.306
3.43733 -236.55 924.015
11.9092 -237.594 894.266
23.7103 -232.782 865.28
-88.1079 -145.27 1254.37
-88.1079 -145.27 1254.37
-88.1079 -145.27 1254.37
-88.1079 -145.27 1254.37
-82.722 -152.284 1234.41
-75.8485 -154.967 1213.62
-68.383 -163.295 1194.49
-60.9332 -173.118 1175.87
-57.0505 -186.825 1157.71
-56.0378 -200.868 1139.06
-56.6328 -213.644 1119.59
-52.7434 -225.642 1100.56
-42.1972 -227.889 1071.08
-30.0408 -227.063 1041.84
-22.116 -226.911 1011.82
-17.2998 -228.737 981.159
-10.0588 -230.545 951.194
-3.23856 -232.614 921.064
6.01289 -234.268 891.552
16.5211 -231.622 862.144
-99.3712 -146.971 1254.37
-99.3712 -146.971 1254.37
-99.3712 -146.971 1254.37
-99.3712 -146.971 1254.37
-95.4584 -153.397 1233.93
-89.2477 -154.62 1212.47
-82.2949 -160.876 1192.52
-73.6213 -167.611 1173.08
-66.8375 -177.564 1154.31
-62.5955 -190.191 1135.75
-61.019 -203.3 1116.7
-58.7982 -215.4 1097.33
-48.4516 -218.721 1067.95
-37.0749 -218.116 1038.47
-29.4394 -218.716 1008.4
-24.4934 -222.378 977.95
-17.1865 -225.948 948.136
-10.441 -230.704 918.196
0.171597 -231.521 888.931
9.87679 -232.148 859.429
-110.634 -148.672 1254.37
-110.634 -148.672 1254.37
-110.634 -148.672 1254.37
-110.634 -148.672 1254.37
-104.281 -153.754 1233.5
-98.9487 -155.402 1211.88
-91.9073 -160.361 1191.43
-84.8795 -166.721 1171.51
-77.8346 -174.188 1152.01
-71.9009 -183.807 1132.89
-68.2159 -194.114 1113.52
-63.7079 -205.952 1094.49
-55.8051 -210.042 1064.65
-45.325 -210.83 1035.08
-38.9611 -212.855 1004.74
-33.2953 -217.437 974.466
-25.5692 -222.57 944.834
-17.6652 -228.807 915.321
-7.19788 -231.348 886.036
2.60433 -231.446 856.311
-121.898 -150.373 1254.37
-121.898 -150.373 1254.37
-121.898 -150.373 1254.37
-121.898 -150.373 1254.37
-114.969 -154.814 1233.13
-108.624 -157.098 1211.51
-101.886 -160.933 1190.56
-94.9091 -167.467 1170.46
-88.2676 -173.427 1150.36
-82.9546 -180.794 1130.46
-77.4309 -187.319 1110.45
-70.3209 -197.051 1091.41
-64.4518 -203.402 1061.44
-55.3409 -205.461 1031.58
-49.3547 -209.413 1001.24
-43.3167 -215.447 971.062
-34.7497 -222.576 941.755
-25.7255 -228.529 912.362
-14.658 -233.123 883.349
-4.77398 -233.287 853.44
-133.161 -152.074 1254.37
-133.161 -152.074 1254.37
-133.161 -152.074 1254.37
-133.161 -152.074 1254.37
-125.855 -159.392 1233.62
-119.113 -161.269 1211.67
-112.319 -163.654 1190.14
-104.658 -169.377 1169.71
-98.6405 -174.619 1149.14
-93.9631 -180.62 1128.63
-89.0057 -184.646 1107.78
-80.994 -190.756 1088
-74.786 -198.777 1058.2
-66.7311 -202.79 1028.19
-60.7929 -208.667 997.885
-53.6193 -216.696 968.075
-43.6116 -224.999 939.134
-34.037 -230.918 909.673
-21.9438 -236.318 880.907
-11.1409 -237.967 851.316
-138.219 -168.537 1279.21
-136.626 -169.153 1269.91
-135.98 -168.942 1263.39
-135.514 -168.477 1258.51
-133.404 -168.105 1235.33
-127.461 -168.273 1212.69
-121.956 -169.643 1190.56
-115.057 -173.443 1169.36
-108.96 -178.014 1148.41
-104.436 -182.953 1127.41
-100.463 -186.524 1106.05
-93.1299 -189.411 1085.25
-87.3001 -197.376 1055.06
-79.0313 -204.089 1025.26
-71.8431 -211.865 995.291
-63.7009 -221.194 965.659
-51.8174 -229.754 937.071
-40.55 -236.249 908.032
-27.3968 -242.292 879.527
-16.1789 -244.369 849.944
-142.252 -181.922 1299.43
-140.057 -184.426 1283.76
-139.112 -184.867 1271.86
-138.568 -185.055 1262.64
-136.891 -179.375 1237.92
-133.011 -178.686 1214.75
-129.04 -179.151 1192.06
-123.83 -180.728 1169.93
-118.027 -183.84 1148.39
-114.645 -188.25 1126.85
-111.36 -190.575 1104.87
-105.114 -191.991 1083.29
-99.899 -201.261 1052.87
-89.6863 -209.775 1023.53
-81.2279 -219.143 993.841
-71.3608 -229.041 964.511
-58.0072 -237.558 936.128
-44.7815 -244.542 907.619
-30.6425 -250.325 879.264
-18.5098 -253.05 849.964
-137.245 -190.252 1313.81
-135.709 -195.618 1294.88
-134.156 -198.211 1279.59
-133.264 -199.725 1266.6
-135.969 -193.453 1241.48
-134.433 -191.796 1217.79
-132.144 -190.487 1194.39
-128.869 -190.424 1171.5
-125.078 -192.462 1149.26
-121.874 -195.274 1127.15
-119.581 -196.093 1104.47
-114.525 -196.879 1082.31
-108.05 -208.463 1052.31
-96.8437 -218.379 1023.19
-86.9162 -228.347 993.753
-75.1848 -238.175 964.747
-60.7568 -246.711 936.534
-46.0338 -253.23 908.339
-30.7947 -258.664 880.246
-16.9252 -261.585 851.602
-126.333 -196.482 1326.27
-124.906 -204.247 1304.51
-123.645 -208.076 1285.87
-122.61 -210.412 1269.75
-129.752 -206.563 1245.1
-131.382 -204.342 1221.05
-131.485 -202.556 1197.26
-130.169 -202.602 1174.08
-128.666 -203.065 1151.05
-126.951 -204.944 1128.34
-126.383 -205.004 1105.01
-121.388 -204.446 1082.37
-112.925 -218.232 1052.99
-100.329 -228.295 1024.03
-89.4261 -238.099 994.653
-75.9457 -248.484 966.111
-60.1942 -255.574 938.01
-44.2562 -261.628 910.117
-27.3968 -266.437 882.541
-12.1356 -268.94 854.445
-112.09 -200.191 1335.55
-111.193 -209.376 1311.26
-109.406 -214.413 1290.52
-109.242 -217.38 1272.05
-120.739 -215.355 1247.82
-124.94 -214.43 1224
-127.12 -213.906 1200.35
-127.979 -213.625 1176.83
-128.527 -214.096 1153.47
-128.559 -215.015 1130.19
-129.439 -215.233 1106.52
-125.147 -214.562 1083.56
-114.711 -228.585 1054.49
-100.942 -239.112 1025.77
-88.8778 -249.227 996.644
-73.5035 -258.139 968.363
-56.0841 -264.18 940.638
-39.0563 -268.494 912.93
-20.887 -271.619 885.727
-4.22062 -273.027 858.219
-98.0544 -202.734 1342.93
-96.1575 -212.365 1316.2
-96.125 -216.9 1292.99
-95.7247 -220.109 1273.27
-109.264 -221.396 1250
-115.214 -222.378 1226.69
-119.282 -223.215 1203.3
-122.373 -223.962 1179.84
-124.816 -224.922 1156.35
-126.785 -225.538 1132.69
-128.941 -225.708 1108.72
-126.208 -224.939 1085.36
-114.054 -239.203 1056.6
-99.0367 -249.334 1028.04
-85.0864 -258.613 999.263
-68.2345 -266.039 971.216
-49.5292 -270.262 943.72
-31.6346 -272.46 916.155
-13.3778 -274.114 888.966
3.18716 -274.571 861.49
-80.5137 -204.705 1350.24
-80.3341 -213.943 1319.92
-81.6917 -217.209 1294.35
-81.9877 -219.682 1273.69
-97.7536 -224.42 1251.44
-103.908 -227.459 1228.82
-109.513 -229.436 1205.74
-114.167 -231.383 1182.51
-117.822 -233.82 1159.28
-121.432 -235.186 1135.58
-124.882 -235.685 1111.48
-125.135 -235.072 1087.55
-111.129 -248.418 1058.97
-94.295 -258.256 1030.81
-78.2783 -266.361 1002.46
-60.7266 -271.983 974.456
-41.6163 -274.248 946.953
-24.2865 -274.914 919.15
-6.48208 -274.692 891.727
10.6948 -273.719 864.528
