-111.354053 -118.144921 1420.675820
-113.203031 -118.132186 1419.958140
-114.684589 -118.255569 1419.975373
-116.170230 -118.424247 1420.192020
-117.673461 -118.653251 1420.669827
-119.100129 -118.466873 1419.333240
-120.552177 -118.506607 1418.990133
-121.945780 -118.412727 1418.075518
-123.414373 -118.545280 1418.138063
-124.767715 -118.442916 1417.200189
-126.092028 -118.334945 1416.247869
-127.392703 -118.229591 1415.315597
-128.664585 -118.117607 1414.364216
-129.811117 -117.879623 1412.898960
-131.001697 -117.738098 1411.845677
-132.160702 -117.590568 1410.777084
-133.330048 -117.478630 1409.862572
-134.687270 -117.558364 1409.730743
-135.779524 -117.401931 1408.646503
-136.985329 -117.358375 1408.022154
-138.264855 -117.378158 1407.652319
-139.455703 -117.331657 1407.020259
-140.700210 -117.327560 1406.557053
-141.868013 -117.272430 1405.894963
-143.130743 -117.282135 1405.486424
-144.423594 -117.308372 1405.140427
-145.545430 -117.230575 1404.394306
-146.462897 -117.041656 1403.228523
-147.838726 -117.113662 1403.055776
-148.752659 -116.936195 1401.942073
-149.796196 -116.833847 1401.115049
-150.827905 -116.729621 1400.283990
-151.854007 -116.626327 1399.459042
-152.801623 -116.490325 1398.517120
-153.790912 -116.377464 1397.662920
-154.781136 -116.267898 1396.822989
-155.889530 -116.209701 1396.168558
-156.607758 -115.993301 1394.952212
-157.551592 -115.872963 1394.081090
-158.356712 -115.701881 1393.034586
-159.172988 -115.539405 1392.022275
-159.982046 -115.378036 1391.017422
-160.770301 -115.212722 1390.002534
-161.420593 -115.002487 1388.843344
-162.299343 -114.875671 1387.961264
-162.927866 -114.667686 1386.814303
-163.572987 -114.469566 1385.705139
-164.244591 -114.283447 1384.639724
-164.918649 -114.101112 1383.590189
-165.629876 -113.932212 1382.586970
-166.366569 -113.772285 1381.614385
-166.770731 -113.521415 1380.357514
-167.510966 -113.366592 1379.406315
-168.115948 -113.176612 1378.347583
-168.943040 -113.045639 1377.471070
-169.359157 -112.810569 1376.279964
-169.956483 -112.623542 1375.237103
-170.556138 -112.438324 1374.201401
-171.168170 -112.256965 1373.178378
-171.607452 -112.036979 1372.045861
-172.160070 -111.844406 1370.994388
-172.697756 -111.649421 1369.937549
-173.213187 -111.450500 1368.871224
-173.654538 -111.237129 1367.767298
-173.985467 -111.002555 1366.610558
-174.596904 -110.825820 1365.606571
-175.019305 -110.611885 1364.506929
-175.408772 -110.392723 1363.395873
-175.630322 -110.144157 1362.214510
-175.967431 -109.918350 1361.092745
-176.286394 -109.690513 1359.968467
-176.575998 -109.458831 1358.837608
-176.906226 -109.234886 1357.726545
-177.283007 -109.018875 1356.634085
-177.572469 -108.789444 1355.513233
-177.998708 -108.581054 1354.436790
-178.381565 -108.365593 1353.344536
-178.449276 -108.105125 1352.165418
-178.796004 -107.884796 1351.064493
-179.194978 -107.670837 1349.973118
-179.499651 -107.443595 1348.856588
-179.852515 -107.221824 1347.747083
-180.125745 -106.988990 1346.618763
-180.381884 -106.754386 1345.485151
-180.549807 -106.508865 1344.336474
-181.035210 -106.297691 1343.226554
-181.295946 -106.060333 1342.080857
-181.641848 -105.830421 1340.937723
-182.023636 -105.602027 1339.788527
-182.310818 -105.362525 1338.623862
-182.649881 -105.125831 1337.453122
-183.082231 -104.894683 1336.273607
-183.507232 -104.659706 1335.079722
-183.464207 -104.385475 1333.879169
-183.792649 -104.138450 1332.666415
-183.961237 -103.877494 1331.449086
-184.121193 -103.614158 1330.224241
-184.791602 -103.379982 1328.946153
-184.999426 -103.113288 1327.689335
-185.257732 -102.846588 1326.414429
-185.391472 -102.570518 1325.142517
-185.448630 -102.288543 1323.871799
-186.013528 -102.025253 1322.502505
-186.201081 -101.741767 1321.178324
-186.312875 -101.452255 1319.854660
-186.759722 -101.169212 1318.439866
-186.862537 -100.871261 1317.083738
-186.919674 -100.569694 1315.724389
-187.427066 -100.271583 1314.221152
-187.991279 -99.966774 1312.667617
-187.953510 -99.649192 1311.273206
-187.940512 -99.328445 1309.855685
-188.420921 -99.003234 1308.241892
-188.911088 -98.669502 1306.586839
-188.841513 -98.332702 1305.118380
-188.081556 -99.509946 1310.610000
-188.156239 -99.290441 1309.610000
-188.279797 -99.074863 1308.610000
-188.369853 -98.856596 1307.610000
-188.578794 -98.647918 1306.610000
-188.780680 -98.438671 1305.610000
-188.997387 -98.230617 1304.610000
-189.177249 -98.010710 1303.610000
-189.430002 -97.819773 1302.610000
-189.566945 -97.611760 1301.610000
-189.634171 -97.380275 1300.610000
-189.661711 -97.156334 1299.610000
-189.706410 -96.937057 1298.610000
-189.983298 -96.740247 1297.610000
-190.141097 -96.518609 1296.610000
-190.216193 -96.299132 1295.610000
-190.231858 -96.074867 1294.610000
-190.315410 -95.856080 1293.610000
-190.402662 -95.637578 1292.610000
-190.486959 -95.429965 1291.610000
-190.552251 -95.219620 1290.610000
-190.586969 -94.984567 1289.610000
-190.623219 -94.755006 1288.610000
-190.574424 -94.522320 1287.610000
-190.655460 -94.311814 1286.610000
-190.707242 -94.120365 1285.610000
-190.820986 -93.921263 1284.610000
-190.776079 -93.672557 1283.610000
-190.535577 -93.385669 1282.610000
-190.484778 -93.163196 1281.610000
-190.386673 -92.929909 1280.610000
-190.172527 -92.687111 1279.610000
-190.223466 -92.465684 1278.610000
-190.125649 -92.232268 1277.610000
-189.886066 -91.987415 1276.610000
-189.833718 -91.757659 1275.610000
-189.765427 -91.526613 1274.610000
-189.650459 -91.291814 1273.610000
-189.542721 -91.057591 1272.610000
-189.223898 -90.806343 1271.610000
-188.828682 -90.548943 1270.610000
-188.669245 -90.310544 1269.610000
-188.488995 -90.070479 1268.610000
-188.425198 -89.857391 1267.610000
-188.314143 -89.648405 1266.610000
-187.882006 -89.374453 1265.610000
-187.401853 -89.080673 1264.610000
-187.184947 -88.835145 1263.610000
-186.954545 -88.574162 1262.610000
-186.679422 -88.345853 1261.610000
-186.492119 -88.134742 1260.610000
-186.459490 -87.926116 1259.610000
-186.329323 -87.702496 1258.610000
-185.856257 -87.411924 1257.610000
-185.220985 -87.100517 1256.610000
-184.696221 -86.832662 1255.610000
-184.247601 -86.570948 1254.610000
-183.927516 -86.319602 1253.610000
-183.731755 -86.078287 1252.610000
-183.606581 -85.842665 1251.610000
-183.536630 -85.611480 1250.610000
-183.400107 -85.380170 1249.610000
-183.244726 -85.170110 1248.610000
-182.896167 -85.026388 1247.610000
-182.608226 -84.937020 1246.610000
-182.275518 -84.834486 1245.610000
-181.445198 -84.585614 1244.610000
-180.690054 -84.276918 1243.610000
-180.461948 -84.218510 1242.610000
-180.319888 -84.201056 1241.610000
-180.247856 -84.185662 1240.610000
-180.208401 -84.202334 1239.610000
-180.074558 -84.173141 1238.610000
-179.972055 -84.153084 1237.610000
-179.839896 -84.108067 1236.610000
-179.751967 -84.072506 1235.610000
-179.235902 -83.890229 1234.610000
-178.942100 -83.824239 1233.610000
-178.601197 -83.700028 1232.610000
-178.176836 -83.527592 1231.610000
-178.110389 -83.520398 1230.610000
-177.946702 -83.494358 1229.610000
-177.644254 -83.392456 1228.610000
-177.362016 -83.305080 1227.610000
-177.170579 -83.244101 1226.610000
-177.010727 -83.192391 1225.610000
-176.863175 -83.144317 1224.610000
-176.576326 -83.055269 1223.610000
-176.199364 -82.939717 1222.610000
-175.796618 -82.803587 1221.610000
-175.706503 -82.768579 1220.610000
-175.586504 -82.728902 1219.610000
-175.396287 -82.669187 1218.610000
-175.231247 -82.634572 1217.610000
-174.939002 -82.541359 1216.610000
-174.660496 -82.453513 1215.610000
-174.521771 -82.409276 1214.610000
-174.382788 -82.364105 1213.610000
-174.104620 -82.277330 1212.610000
-173.801508 -82.181730 1211.610000
-173.627899 -82.140022 1210.610000
-173.502890 -82.117595 1209.610000
-173.317498 -82.037662 1208.610000
-173.119424 -81.965466 1207.610000
-172.881346 -81.893283 1206.610000
-172.619105 -81.807215 1205.610000
-172.454651 -81.754042 1204.610000
-172.281209 -81.698351 1203.610000
-171.992964 -81.608891 1202.610000
-171.736076 -81.528647 1201.610000
-171.369009 -81.416015 1200.610000
-170.941416 -81.285568 1199.610000
-170.729724 -81.218633 1198.610000
-170.531730 -81.155708 1197.610000
-170.253627 -81.069236 1196.610000
-169.959483 -80.978039 1195.610000
-169.786383 -80.922447 1194.610000
-169.565512 -80.852807 1193.610000
-169.064722 -80.698564 1192.610000
-168.820529 -80.638954 1191.610000
-168.417575 -80.526863 1190.610000
-168.055131 -80.395162 1189.610000
-167.679712 -80.276496 1188.610000
-167.598372 -80.250322 1187.610000
-167.346575 -80.176738 1186.610000
-167.172010 -80.118784 1185.610000
-166.476408 -79.875728 1184.610000
-166.347579 -79.859560 1183.610000
-165.852839 -79.709370 1182.610000
-165.722813 -79.666446 1181.610000
-165.370289 -79.558081 1180.610000
-164.952159 -79.430422 1179.610000
-164.903622 -79.411520 1178.610000
-164.829729 -79.393843 1177.610000
-164.574612 -79.321515 1176.610000
-164.232303 -79.204232 1175.610000
-163.693295 -79.031567 1174.610000
-163.417998 -78.951267 1173.610000
-163.099556 -78.847198 1172.610000
-162.606655 -78.683743 1171.610000
-162.340134 -78.633348 1170.610000
-162.037632 -78.526409 1169.610000
-161.794338 -78.450166 1168.610000
-161.546862 -78.372702 1167.610000
-161.346398 -78.309055 1166.610000
-161.160329 -78.249642 1165.610000
-160.946041 -78.181940 1164.610000
-160.367675 -77.981042 1163.610000
-160.082394 -77.883384 1162.610000
-159.742544 -77.803989 1161.610000
-159.638979 -77.778828 1160.610000
-159.327646 -77.682228 1159.610000
-158.961741 -77.578033 1158.610000
-158.526610 -77.458738 1157.610000
-157.981514 -77.272972 1156.610000
-157.596529 -77.148463 1155.610000
-157.381391 -77.084529 1154.610000
-157.164612 -77.023967 1153.610000
-156.599677 -76.847449 1152.610000
-156.322151 -76.761149 1151.610000
-156.182963 -76.715523 1150.610000
-155.933823 -76.637572 1149.610000
-155.658606 -76.551937 1148.610000
-155.573013 -76.522083 1147.610000
-155.322607 -76.449118 1146.610000
-155.079171 -76.398105 1145.610000
-154.559591 -76.209577 1144.610000
-154.225510 -76.108519 1143.610000
-153.693676 -75.936725 1142.610000
-153.461754 -75.860886 1141.610000
-153.200062 -75.784526 1140.610000
-153.039996 -75.739639 1139.610000
-152.643255 -75.618274 1138.610000
-152.225767 -75.490801 1137.610000
-151.795475 -75.361959 1136.610000
-151.529874 -75.293871 1135.610000
-151.544994 -75.299345 1134.610000
-151.252025 -75.188704 1133.610000
-150.781286 -75.044313 1132.610000
-150.425785 -74.915676 1131.610000
-150.080974 -74.825810 1130.610000
-149.776445 -74.721599 1129.610000
-149.549663 -74.661595 1128.610000
-148.985659 -74.491038 1127.610000
-148.916921 -74.466134 1126.610000
-148.707654 -74.399897 1125.610000
-148.468491 -74.324303 1124.610000
-148.339507 -74.273943 1123.610000
-148.278414 -74.270784 1122.610000
-148.151852 -74.231123 1121.610000
-147.692338 -74.074064 1120.610000
-147.557669 -74.031001 1119.610000
-147.348768 -73.968658 1118.610000
-147.211507 -73.941602 1117.610000
-147.128256 -73.930552 1116.610000
-146.986509 -73.885330 1115.610000
-146.755730 -73.817228 1114.610000
-146.481188 -73.693236 1113.610000
-146.328754 -73.647874 1112.610000
-146.135952 -73.578684 1111.610000
-145.811006 -73.485434 1110.610000
-145.538897 -73.400596 1109.610000
-145.191877 -73.286236 1108.610000
-144.909331 -73.198457 1107.610000
-144.563799 -73.092150 1106.610000
-144.350738 -73.024805 1105.610000
-144.178954 -72.969596 1104.610000
-144.049793 -72.943558 1103.610000
-143.833692 -72.944330 1102.610000
-143.594638 -72.867918 1101.610000
-143.335662 -72.738668 1100.610000
-143.099024 -72.627660 1099.610000
-142.811207 -72.535180 1098.610000
-142.507508 -72.419026 1097.610000
-142.385437 -72.390157 1096.610000
-142.207586 -72.355664 1095.610000
-141.928931 -72.261001 1094.610000
-141.843949 -72.231318 1093.610000
-141.627417 -72.162953 1092.610000
-141.330988 -72.071088 1091.610000
-140.863561 -71.861204 1090.610000
-140.602153 -71.860679 1089.610000
-140.198214 -71.721217 1088.610000
-139.870439 -71.619257 1087.610000
-139.535219 -71.469228 1086.610000
-139.391538 -71.449650 1085.610000
-139.141683 -71.394417 1084.610000
-139.092197 -71.375176 1083.610000
-138.797163 -71.283715 1082.610000
-138.214534 -71.101511 1081.610000
-137.927331 -71.014745 1080.610000
-137.833868 -70.985043 1079.610000
-137.632732 -70.919523 1078.610000
-137.589578 -70.903678 1077.610000
-137.440941 -70.857691 1076.610000
-137.203834 -70.765415 1075.610000
-136.993379 -70.755155 1074.610000
-136.837329 -70.745998 1073.610000
-136.606877 -70.629026 1072.610000
-136.474555 -70.560430 1071.610000
-136.220870 -70.471963 1070.610000
-136.164366 -70.450774 1069.610000
-135.944275 -70.391255 1068.610000
-135.973923 -70.397920 1067.610000
-136.017346 -70.398859 1066.610000
-135.964413 -70.379097 1065.610000
-135.619202 -70.257068 1064.610000
-135.378437 -70.189222 1063.610000
-135.304600 -70.162822 1062.610000
-135.172399 -70.119248 1061.610000
-135.001098 -70.064189 1060.610000
-135.030822 -70.068235 1059.610000
-135.031977 -70.063886 1058.610000
-134.962719 -70.038836 1057.610000
-134.962573 -70.034103 1056.610000
-134.933524 -70.020870 1055.610000
-134.933973 -70.016313 1054.610000
-134.896200 -70.000518 1053.610000
-135.001049 -70.026666 1052.610000
-134.951980 -70.007542 1051.610000
-134.840384 -69.970032 1050.610000
-134.927815 -69.991060 1049.610000
-134.852353 -69.964178 1048.610000
-134.861709 -69.962244 1047.610000
-134.862886 -69.957897 1046.610000
-134.835249 -69.945081 1045.610000
-135.049331 -70.003349 1044.610000
-135.547769 -70.132337 1043.610000
-136.115983 -70.310186 1042.610000
-136.322045 -70.355605 1041.610000
-136.464758 -70.401027 1040.610000
-136.694287 -70.491921 1039.610000
-136.698579 -70.480536 1038.610000
-136.617203 -70.408440 1037.610000
-136.641127 -70.341762 1036.610000
-136.742886 -70.422154 1035.610000
-136.923830 -70.475653 1034.610000
-137.508541 -70.678169 1033.610000
-137.663600 -70.717502 1032.610000
-137.838907 -70.758791 1031.610000
-138.369658 -70.914187 1030.610000
-138.853136 -71.051681 1029.610000
-138.966076 -71.078969 1028.610000
-139.017000 -71.075783 1027.610000
-139.318658 -71.133245 1026.610000
-139.639406 -71.254567 1025.610000
-139.939932 -71.343815 1024.610000
-140.198423 -71.397900 1023.610000
-140.395253 -71.423186 1022.610000
-141.041122 -71.657639 1021.610000
-141.415588 -71.763070 1020.610000
-141.705156 -71.843550 1019.610000
-142.176206 -72.009761 1018.610000
-142.359300 -72.058263 1017.610000
-142.631362 -72.099477 1016.610000
-142.680090 -72.110313 1015.610000
-142.683882 -72.105572 1014.610000
-142.966283 -72.183786 1013.610000
-143.741163 -72.409491 1012.610000
-144.297222 -72.568336 1011.610000
-144.427259 -72.601890 1010.610000
-145.150771 -72.816342 1009.610000
-145.551601 -72.927474 1008.610000
-146.070689 -73.085346 1007.610000
-146.411039 -73.106876 1006.610000
-146.970189 -73.323459 1005.610000
-147.543210 -73.490936 1004.610000
-148.031204 -73.628955 1003.610000
-148.461622 -73.750848 1002.610000
-149.085602 -73.943316 1001.610000
-149.610402 -74.120587 1000.610000
-150.075346 -74.210524 999.610000
-150.437557 -74.275483 998.610000
-151.051285 -74.480049 997.610000
-151.333549 -74.567316 996.610000
-151.806692 -74.701778 995.610000
-152.339904 -74.853725 994.610000
-153.044615 -75.056304 993.610000
-153.350647 -75.139628 992.610000
-154.024916 -75.334498 991.610000
-154.537392 -75.479691 990.610000
-155.064585 -75.631758 989.610000
-155.648084 -75.798671 988.610000
-156.197571 -75.956491 987.610000
-156.681665 -76.094063 986.610000
-157.107559 -76.213197 985.610000
-158.079829 -76.498983 984.610000
-158.557570 -76.627833 983.610000
-159.039339 -76.757049 982.610000
-159.821851 -76.993308 981.610000
-160.279387 -77.123180 980.610000
-160.877738 -77.294459 979.610000
-161.368424 -77.454738 978.610000
-161.871195 -77.581495 977.610000
-162.527892 -77.763433 976.610000
-163.325211 -78.054358 975.610000
-163.716511 -78.105872 974.610000
-164.197944 -78.242767 973.610000
-164.673730 -78.377998 972.610000
-165.069023 -78.485285 971.610000
-165.590303 -78.636124 970.610000
-166.097250 -78.782232 969.610000
-166.618872 -78.924571 968.610000
-167.291321 -79.170290 967.610000
-167.842839 -79.286192 966.610000
-168.265647 -79.401527 965.610000
-168.755527 -79.540901 964.610000
-169.220766 -79.673033 963.610000
-169.534921 -79.760737 962.610000
-170.213569 -79.955631 961.610000
-170.784726 -80.118917 960.610000
-171.215347 -80.241712 959.610000
-171.481739 -80.326406 958.610000
-171.859742 -80.430584 957.610000
-172.350865 -80.561110 956.610000
-172.852678 -80.700659 955.610000
-173.312935 -80.833625 954.610000
-173.644974 -80.917233 953.610000
-174.004083 -81.028209 952.610000
-174.346514 -81.124204 951.610000
-174.672385 -81.215349 950.610000
-175.198632 -81.365426 949.610000
-175.812046 -81.546481 948.610000
-176.262497 -81.653573 947.610000
-176.553878 -81.737800 946.610000
-176.851024 -81.827988 945.610000
-177.195689 -81.929829 944.610000
-177.490066 -82.012756 943.610000
-177.744739 -82.087098 942.610000
-178.024688 -82.165406 941.610000
-178.453200 -82.279584 940.610000
-178.978734 -82.430221 939.610000
-179.277451 -82.513389 938.610000
-179.492823 -82.572040 937.610000
-179.906689 -82.689064 936.610000
-180.315730 -82.804672 935.610000
-180.526831 -82.862060 934.610000
-180.750879 -82.923842 933.610000
-180.994768 -83.000093 932.610000
-181.194901 -83.052142 931.610000
-181.357485 -83.098483 930.610000
-181.693312 -83.187085 929.610000
-182.031776 -83.278657 928.610000
-182.317237 -83.356115 927.610000
-182.444417 -83.388529 926.610000
-182.635575 -83.441262 925.610000
-182.795927 -83.479191 924.610000
-183.188924 -83.605047 923.610000
-183.505230 -83.686308 922.610000
-183.679207 -83.722892 921.610000
-183.872892 -83.781165 920.610000
-184.068208 -83.828032 919.610000
-184.191268 -83.863350 918.610000
-184.287214 -83.888372 917.610000
-184.420563 -83.922220 916.610000
-184.746144 -84.013425 915.610000
-184.895819 -84.051140 914.610000
-185.247724 -84.156498 913.610000
-185.400902 -84.194831 912.610000
-185.487294 -84.213631 911.610000
-185.817694 -84.308791 910.610000
-186.089992 -84.380914 909.610000
-186.282082 -84.432720 908.610000
-186.321301 -84.439564 907.610000
-186.377516 -84.451407 906.610000
-186.426600 -84.461156 905.610000
-186.654381 -84.523457 904.610000
-186.662784 -84.521240 903.610000
-186.632248 -84.507567 902.610000
-186.553085 -84.479597 901.610000
-186.677469 -84.511486 900.610000
-186.935263 -84.582613 899.610000
-187.010345 -84.600006 898.610000
-187.049842 -84.606935 897.610000
-187.053769 -84.603403 896.610000
-187.111508 -84.615686 895.610000
-187.307921 -84.668765 894.610000
-187.301828 -84.662281 893.610000
-187.294218 -84.655361 892.610000
-187.267086 -84.642688 891.610000
-187.312183 -84.651263 890.610000
-187.314050 -84.647128 889.610000
-187.283841 -84.633552 888.610000
-187.290545 -84.630835 887.610000
-187.293380 -84.626978 886.610000
-187.197426 -84.594071 885.610000
-187.104259 -84.561989 884.610000
-187.103031 -84.556933 883.610000
-187.096994 -84.550475 882.610000
-186.941861 -84.500157 881.610000
-186.794026 -84.451997 880.610000
-186.718954 -84.425231 879.610000
-186.569386 -84.376555 878.610000
-186.571294 -84.372429 877.610000
-186.564523 -84.365744 876.610000
-186.266476 -84.273402 875.610000
-186.100720 -84.219970 874.610000
-186.029450 -84.194319 873.610000
-186.123628 -84.217332 872.610000
-186.046397 -84.189928 871.610000
-186.036992 -84.182472 870.610000
-185.914015 -84.141618 869.610000
-185.654706 -84.060688 868.610000
-185.378097 -83.972249 867.610000
-185.351140 -83.965498 866.610000
-185.045458 -83.865652 865.610000
-184.940926 -83.834340 864.610000
-184.703234 -83.757398 863.610000
-184.529217 -83.702059 862.610000
-184.415528 -83.663795 861.610000
-184.227817 -83.602870 860.610000
-184.145645 -83.575452 859.610000
-183.916592 -83.502977 858.610000
-183.661341 -83.421088 857.610000
-183.465948 -83.358910 856.610000
-183.185668 -83.274653 855.610000
-182.913746 -83.198605 854.610000
-182.718130 -83.119145 853.610000
-182.502249 -83.037060 852.610000
-182.319961 -82.987098 851.610000
-182.107103 -82.932642 850.610000
-181.988345 -82.893139 849.610000
-181.941917 -82.873586 848.610000
-181.719716 -82.805611 847.610000
-181.317529 -82.684745 846.610000
-180.940899 -82.567625 845.610000
-180.470599 -82.414145 844.610000
-180.141317 -82.318978 843.610000
-179.884171 -82.241715 842.610000
-179.529722 -82.132785 841.610000
-179.262222 -82.049425 840.610000
-178.800066 -81.908819 839.610000
-178.445685 -81.799909 838.610000
-178.359681 -81.769931 837.610000
-178.167065 -81.708533 836.610000
-178.029059 -81.680935 835.610000
-177.343327 -81.457574 834.610000
-177.110243 -81.406504 833.610000
-176.637239 -81.232107 832.610000
-176.333993 -81.150745 831.610000
-175.851272 -80.993523 830.610000
-175.549877 -80.898094 829.610000
-175.221020 -80.803965 828.610000
-174.705906 -80.648513 827.610000
-174.338635 -80.535813 826.610000
-173.959298 -80.419561 825.610000
-173.528825 -80.288277 824.610000
-173.043638 -80.137609 823.610000
-172.701360 -80.027467 822.610000
-172.243023 -79.880115 821.610000
-171.723455 -79.732935 820.610000
-170.903659 -79.445111 819.610000
-170.822474 -79.455731 818.610000
-170.323872 -79.335094 817.610000
-169.537118 -79.076847 816.610000
-169.114739 -78.947937 815.610000
-168.166255 -78.664318 814.610000
-167.795622 -78.550624 813.610000
-167.408094 -78.431970 812.610000
-167.144343 -78.349715 811.610000
-166.674230 -78.217971 810.610000
-166.674336 -78.220315 809.610000
-166.663811 -78.220716 808.610000
-166.553307 -78.203374 807.610000
-166.229893 -78.086754 806.610000
-155.605198 -78.130950 786.572000
