-85.854419 -53.710006 1459.654265
-87.686434 -54.536259 1458.846931
-89.453832 -55.367235 1458.048362
-91.157597 -56.202815 1457.258502
-92.798714 -57.042878 1456.477298
-94.378169 -57.887305 1455.704694
-95.896947 -58.735978 1454.940637
-97.356033 -59.588775 1454.185072
-98.756412 -60.445579 1453.437944
-100.099070 -61.306269 1452.699198
-101.384991 -62.170726 1451.968781
-102.615162 -63.038830 1451.246638
-103.790566 -63.910461 1450.532713
-104.912190 -64.785502 1449.826953
-105.981018 -65.663831 1449.129304
-106.998036 -66.545329 1448.439709
-107.964230 -67.429878 1447.758116
-108.880583 -68.317356 1447.084469
-109.748082 -69.207646 1446.418714
-110.567711 -70.100626 1445.760797
-111.340457 -70.996179 1445.110662
-112.067303 -71.894184 1444.468256
-112.749236 -72.794522 1443.833523
-113.387240 -73.697074 1443.206410
-113.982300 -74.601719 1442.586862
-114.535403 -75.508338 1441.974823
-115.047533 -76.416813 1441.370241
-115.519675 -77.327022 1440.773059
-115.952815 -78.238848 1440.183224
-116.347937 -79.152170 1439.600681
-116.706028 -80.066869 1439.025376
-117.028071 -80.982825 1438.457254
-117.315053 -81.899920 1437.896260
-117.567959 -82.818032 1437.342340
-117.787773 -83.737044 1436.795439
-117.975482 -84.656835 1436.255504
-118.132069 -85.577285 1435.722479
-118.258521 -86.498277 1435.196309
-118.355823 -87.419689 1434.676941
-118.424960 -88.341402 1434.164319
-118.466917 -89.263298 1433.658390
-118.482679 -90.185255 1433.159099
-118.473231 -91.107156 1432.666390
-118.439560 -92.028880 1432.180210
-118.382649 -92.950308 1431.700505
-118.303484 -93.871321 1431.227218
-118.203051 -94.791798 1430.760297
-118.082334 -95.711621 1430.299687
-117.942320 -96.630670 1429.845332
-117.783992 -97.548825 1429.397179
-117.608336 -98.465967 1428.955172
-117.416338 -99.381976 1428.519258
-117.208982 -100.296734 1428.089382
-116.987255 -101.210119 1427.665489
-116.752140 -102.122014 1427.247525
-116.504624 -103.032298 1426.835435
-116.245691 -103.940853 1426.429165
-115.976327 -104.847557 1426.028660
-115.697516 -105.752293 1425.633865
-115.410245 -106.654940 1425.244727
-115.115498 -107.555379 1424.861190
-114.814261 -108.453490 1424.483200
-114.507519 -109.349154 1424.110703
-114.196256 -110.242252 1423.743643
-113.881459 -111.132664 1423.381968
-113.564112 -112.020270 1423.025621
-113.245201 -112.904951 1422.674548
-112.925710 -113.786588 1422.328695
-112.606626 -114.665061 1421.988008
-112.288933 -115.540250 1421.652431
-111.973616 -116.412036 1421.321911
-111.661661 -117.280299 1420.996392
-111.354053 -118.144921 1420.675820
-111.051777 -119.005781 1420.360141
-110.755818 -119.862760 1420.049301
-110.467162 -120.715738 1419.743243
-110.186526 -121.564644 1419.441864
-109.913559 -122.409597 1419.144849
-109.647641 -123.250763 1418.851837
-109.388153 -124.088308 1418.562462
-109.134477 -124.922399 1418.276361
-108.885992 -125.753203 1417.993171
-108.642079 -126.580887 1417.712528
-108.402120 -127.405616 1417.434068
-108.165495 -128.227557 1417.157427
-107.931585 -129.046877 1416.882242
-107.699771 -129.863743 1416.608149
-107.469434 -130.678320 1416.334784
-107.239954 -131.490776 1416.061783
-107.010712 -132.301277 1415.788784
-106.781090 -133.109989 1415.515422
-106.550467 -133.917080 1415.241333
-106.318225 -134.722715 1414.966154
-106.083744 -135.527061 1414.689521
-105.846405 -136.330285 1414.411070
-105.605590 -137.132553 1414.130438
-105.360679 -137.934032 1413.847261
-105.111052 -138.734888 1413.561175
-104.856090 -139.535288 1413.271817
-104.595176 -140.335398 1412.978822
-104.327688 -141.135385 1412.681827
-104.053008 -141.935416 1412.380469
-103.770516 -142.735656 1412.074384
-103.479595 -143.536274 1411.763207
-103.179624 -144.337434 1411.446576
-102.869983 -145.139304 1411.124126
-102.550055 -145.942050 1410.795494
-102.219220 -146.745838 1410.460317
-101.876858 -147.550836 1410.118230
-101.522350 -148.357209 1409.768869
-101.155078 -149.165125 1409.411872
-100.774422 -149.974750 1409.046873
-100.379762 -150.786250 1408.673511
-99.970480 -151.599792 1408.291420
-99.545957 -152.415542 1407.900238
-99.105573 -153.233668 1407.499600
-98.648708 -154.054335 1407.089143
-98.174745 -154.877709 1406.668502
-97.683063 -155.703959 1406.237316
-97.173044 -156.533250 1405.795219
-96.644068 -157.365748 1405.341848
-96.095516 -158.201620 1404.876839
-95.526769 -159.041034 1404.399829
-94.937208 -159.884154 1403.910453
-94.326213 -160.731149 1403.408349
-93.693165 -161.582183 1402.893152
-93.037446 -162.437425 1402.364499
-92.358435 -163.297040 1401.822026
-91.655514 -164.161195 1401.265369
-90.928064 -165.030057 1400.694165
-90.175465 -165.903791 1400.108049
-89.397098 -166.782566 1399.506659
-88.592344 -167.666546 1398.889631
-87.760584 -168.555899 1398.256600
-86.901199 -169.450791 1397.607203
-86.013568 -170.351389 1396.941077
-85.097074 -171.257859 1396.257857
-84.151097 -172.170369 1395.557180
-83.175018 -173.089083 1394.838682
-82.168218 -174.014169 1394.102000
-81.130076 -174.945794 1393.346770
-80.059975 -175.884124 1392.572628
-78.957295 -176.829325 1391.779211
-77.821417 -177.781564 1390.966154
-76.651722 -178.741008 1390.133094
-75.447590 -179.707823 1389.279667
-74.208402 -180.682176 1388.405510
-72.933539 -181.664233 1387.510259
-71.622382 -182.654161 1386.593550
-70.274312 -183.652125 1385.655019
-68.888920 -184.658143 1384.694450
