-180.985150 11.792581 1337.740321
-180.876120 10.962287 1337.740170
-180.769611 10.134805 1337.740025
-180.663765 9.309053 1337.739887
-180.556727 8.483949 1337.739758
s
-180.535360 7.714966 1335.709649
-180.414354 6.880672 1335.709573
-180.292870 6.044151 1335.709507
-180.171413 5.205347 1335.709452
-180.050488 4.364199 1335.709407
-179.930600 3.520650 1335.709372
-179.812253 2.674641 1335.709345
-179.695951 1.826114 1335.709327
-179.582200 0.975009 1335.709318
-179.471503 0.121269 1335.709317
-179.364366 -0.735165 1335.709323
-179.261293 -1.594351 1335.709336
-179.162788 -2.456348 1335.709356
-179.069356 -3.321215 1335.709382
-178.981502 -4.189010 1335.709414
-178.899730 -5.059792 1335.709451
-178.824545 -5.933619 1335.709494
-178.756451 -6.810549 1335.709541
-178.695953 -7.690641 1335.709592
-178.643556 -8.573954 1335.709648
-178.599763 -9.460546 1335.709706
-178.565081 -10.350476 1335.709768
-178.540012 -11.243802 1335.709832
-178.525042 -12.140584 1335.709898
-178.520169 -13.040919 1335.709966
-178.524912 -13.944941 1335.710035
-178.538765 -14.852783 1335.710104
-178.561225 -15.764581 1335.710173
-178.591788 -16.680469 1335.710240
-178.629950 -17.600583 1335.710306
-178.675206 -18.525057 1335.710370
-178.727053 -19.454026 1335.710430
-178.784987 -20.387625 1335.710486
-178.848503 -21.325988 1335.710538
-178.917097 -22.269251 1335.710585
-178.990266 -23.217547 1335.710625
-179.067505 -24.171013 1335.710660
-179.148310 -25.129783 1335.710687
-179.232177 -26.093991 1335.710706
-179.318602 -27.063772 1335.710717
-179.407082 -28.039262 1335.710718
-179.497111 -29.020594 1335.710709
-179.588186 -30.007905 1335.710690
-179.679803 -31.001328 1335.710659
-179.771457 -32.000998 1335.710617
-179.862646 -33.007051 1335.710561
-179.953074 -34.019821 1335.710493
-180.043294 -35.040449 1335.710413
-180.134065 -36.070275 1335.710324
-180.226148 -37.110639 1335.710226
-180.320305 -38.162882 1335.710122
-180.417297 -39.228345 1335.710013
-180.517884 -40.308367 1335.709902
-180.622828 -41.404289 1335.709789
-180.732890 -42.517453 1335.709677
-180.848831 -43.649197 1335.709568
-180.971411 -44.800863 1335.709463
-181.101391 -45.973792 1335.709364
-181.239534 -47.169323 1335.709272
-181.386599 -48.388797 1335.709190
-181.543348 -49.633554 1335.709119
-181.710542 -50.904936 1335.709062
-181.888941 -52.204282 1335.709019
-182.079307 -53.532933 1335.708992
-182.282401 -54.892230 1335.708984
-182.498984 -56.283513 1335.708995
-182.729816 -57.708122 1335.709029
-182.975660 -59.167397 1335.709086
-183.237185 -60.662584 1335.709168
-183.513009 -62.192694 1335.709275
-183.799688 -63.754511 1335.709402
-184.093692 -65.344723 1335.709547
-184.391491 -66.960015 1335.709707
-184.689554 -68.597075 1335.709878
-184.984350 -70.252589 1335.710056
-185.272347 -71.923243 1335.710239
-185.550016 -73.605724 1335.710422
-185.813825 -75.296718 1335.710603
-186.060244 -76.992914 1335.710778
-186.285742 -78.690996 1335.710944
-186.486788 -80.387651 1335.711097
-186.659851 -82.079567 1335.711235
-186.801400 -83.763429 1335.711353
-186.907905 -85.435925 1335.711448
-186.975835 -87.093740 1335.711517
-187.001659 -88.733562 1335.711557
-186.981846 -90.352077 1335.711564
-186.912865 -91.945972 1335.711535
-186.791186 -93.511933 1335.711466
-186.613278 -95.046648 1335.711355
-186.375609 -96.546801 1335.711197
-186.075853 -98.010173 1335.710991
-185.716490 -99.438908 1335.710743
-185.301208 -100.836243 1335.710459
-184.833689 -102.205417 1335.710147
-184.317621 -103.549665 1335.709815
-183.756687 -104.872226 1335.709468
-183.154574 -106.176337 1335.709115
-182.514966 -107.465234 1335.708762
-181.841548 -108.742156 1335.708417
-181.138006 -110.010338 1335.708087
-180.408025 -111.273020 1335.707779
-179.655289 -112.533437 1335.707499
-178.883485 -113.794827 1335.707257
-178.096297 -115.060428 1335.707057
-177.297410 -116.333476 1335.706909
-176.490510 -117.617210 1335.706818
-175.679281 -118.914865 1335.706792
-174.867410 -120.229679 1335.706838
-174.058580 -121.564890 1335.706964
-173.256478 -122.923735 1335.707176
-172.464788 -124.309451 1335.707482
-171.687196 -125.725275 1335.707888
-170.927243 -127.174323 1335.708402
-170.185186 -128.656893 1335.709018
-169.457993 -130.170471 1335.709717
-168.742491 -131.712417 1335.710480
-168.035504 -133.280096 1335.711290
-167.333860 -134.870868 1335.712126
-166.634384 -136.482095 1335.712970
-165.933902 -138.111140 1335.713803
-165.229240 -139.755366 1335.714607
-164.517225 -141.412132 1335.715363
-163.794682 -143.078803 1335.716051
-163.058436 -144.752740 1335.716654
-162.305315 -146.431305 1335.717152
-161.532144 -148.111861 1335.717526
-160.735749 -149.791768 1335.717758
-159.912957 -151.468390 1335.717828
-159.060592 -153.139088 1335.717719
-158.175481 -154.801225 1335.717411
-157.254451 -156.452163 1335.716885
-156.294326 -158.089263 1335.716123
-155.291934 -159.709888 1335.715106
-154.244099 -161.311400 1335.713814
-153.147648 -162.891161 1335.712230
-152.000372 -164.446244 1335.710341
-150.803917 -165.972568 1335.708160
-149.560894 -167.465762 1335.705707
-148.273914 -168.921456 1335.703002
-146.945589 -170.335280 1335.700065
-145.578530 -171.702864 1335.696916
-144.175347 -173.019837 1335.693575
-142.738652 -174.281828 1335.690062
-141.271057 -175.484468 1335.686396
-139.775172 -176.623387 1335.682598
-138.253608 -177.694213 1335.678688
-136.708976 -178.692577 1335.674685
-135.143889 -179.614108 1335.670609
-133.560956 -180.454437 1335.666481
-131.962789 -181.209192 1335.662320
-130.351999 -181.874003 1335.658146
-128.731197 -182.444500 1335.653979
-127.102995 -182.916313 1335.649839
-125.470003 -183.285072 1335.645745
-123.834833 -183.546406 1335.641719
-122.200096 -183.695944 1335.637779
-120.568403 -183.729317 1335.633946
-118.942288 -183.642464 1335.630239
-117.322516 -183.438430 1335.626671
-115.708084 -183.127370 1335.623249
-114.097910 -182.719749 1335.619979
-112.490915 -182.226028 1335.616866
-110.886017 -181.656672 1335.613917
-109.282136 -181.022145 1335.611138
-107.678191 -180.332909 1335.608535
-106.073101 -179.599428 1335.606115
-104.465786 -178.832166 1335.603882
-102.855165 -178.041585 1335.601843
-101.240157 -177.238151 1335.600005
-99.619681 -176.432325 1335.598374
-97.992657 -175.634572 1335.596954
-96.358004 -174.855355 1335.595753
-94.714641 -174.105138 1335.594777
-93.061488 -173.394384 1335.594032
-91.397463 -172.733556 1335.593523
-89.721487 -172.133117 1335.593257
-88.032478 -171.603533 1335.593240
-86.329356 -171.155265 1335.593479
-84.611040 -170.798778 1335.593978
-82.876450 -170.544534 1335.594744
-81.125227 -170.399143 1335.595780
-79.359909 -170.353795 1335.597076
-77.583758 -170.395825 1335.598618
-75.800032 -170.512568 1335.600392
-74.011993 -170.691360 1335.602384
-72.222901 -170.919536 1335.604581
-70.436016 -171.184432 1335.606968
-68.654600 -171.473382 1335.609533
-66.881913 -171.773723 1335.612262
-65.121215 -172.072790 1335.615140
-63.375767 -172.357917 1335.618154
-61.648829 -172.616441 1335.621291
-59.943661 -172.835696 1335.624536
-58.263526 -173.003019 1335.627877
-56.611681 -173.105744 1335.631298
-54.991390 -173.131207 1335.634787
-53.405911 -173.066743 1335.638330
-51.858506 -172.899687 1335.641913
-50.352434 -172.617376 1335.645522
-48.890957 -172.207143 1335.649144
-47.477335 -171.656326 1335.652765
-46.114829 -170.952258 1335.656371
-44.806592 -170.082749 1335.659948
-43.553339 -169.046482 1335.663487
-42.353342 -167.853018 1335.666978
-41.204767 -166.512389 1335.670414
-40.105781 -165.034629 1335.673788
-39.054550 -163.429770 1335.677092
-38.049241 -161.707846 1335.680317
-37.088020 -159.878890 1335.683456
-36.169054 -157.952935 1335.686501
-35.290509 -155.940013 1335.689444
-34.450551 -153.850158 1335.692278
-33.647347 -151.693403 1335.694995
-32.879064 -149.479780 1335.697587
-32.143868 -147.219324 1335.700046
-31.439924 -144.922066 1335.702364
-30.765401 -142.598040 1335.704534
-30.118464 -140.257279 1335.706547
-29.497279 -137.909815 1335.708397
-28.900014 -135.565683 1335.710074
-28.324834 -133.234915 1335.711572
-27.769906 -130.927543 1335.712882
-27.233396 -128.653601 1335.713998
-26.713471 -126.423123 1335.714910
-26.208712 -124.244029 1335.715615
-25.719358 -122.115800 1335.716123
-25.246063 -120.035804 1335.716449
-24.789480 -118.001410 1335.716607
-24.350263 -116.009985 1335.716611
-23.929065 -114.058899 1335.716476
-23.526541 -112.145519 1335.716215
-23.143343 -110.267215 1335.715843
-22.780126 -108.421354 1335.715374
-22.437544 -106.605306 1335.714823
-22.116249 -104.816439 1335.714204
-21.816895 -103.052121 1335.713530
-21.540137 -101.309721 1335.712817
-21.286627 -99.586606 1335.712078
-21.057020 -97.880147 1335.711328
-20.851969 -96.187711 1335.710581
-20.672128 -94.506666 1335.709851
-20.518150 -92.834381 1335.709153
-20.390689 -91.168225 1335.708500
-20.290399 -89.505566 1335.707908
-20.217933 -87.843773 1335.707389
-20.173946 -86.180214 1335.706959
-20.159040 -84.512355 1335.706632
-20.172682 -82.839937 1335.706410
-20.213199 -81.164969 1335.706286
-20.278868 -79.489559 1335.706253
-20.367967 -77.815816 1335.706302
-20.478773 -76.145850 1335.706426
-20.609564 -74.481768 1335.706616
-20.758617 -72.825680 1335.706866
-20.924210 -71.179695 1335.707167
-21.104620 -69.545920 1335.707511
-21.298125 -67.926465 1335.707890
-21.503002 -66.323439 1335.708298
-21.717529 -64.738949 1335.708725
-21.939984 -63.175106 1335.709164
-22.168643 -61.634018 1335.709607
-22.401784 -60.117793 1335.710047
-22.637685 -58.628541 1335.710475
-22.874624 -57.168369 1335.710884
-23.110877 -55.739387 1335.711266
-23.344723 -54.343704 1335.711613
-23.574438 -52.983427 1335.711917
-23.798301 -51.660667 1335.712170
-24.014589 -50.377532 1335.712365
-24.221884 -49.135527 1335.712496
-24.419989 -47.933745 1335.712565
-24.609012 -46.770679 1335.712577
-24.789060 -45.644817 1335.712538
-24.960241 -44.554650 1335.712452
-25.122662 -43.498670 1335.712324
-25.276433 -42.475366 1335.712158
-25.421659 -41.483229 1335.711960
-25.558449 -40.520750 1335.711734
-25.686911 -39.586419 1335.711485
-25.807151 -38.678726 1335.711219
-25.919278 -37.796162 1335.710939
-26.023400 -36.937218 1335.710650
-26.119624 -36.100384 1335.710359
-26.208058 -35.284151 1335.710068
-26.288809 -34.487008 1335.709784
-26.361986 -33.707447 1335.709510
-26.427695 -32.943958 1335.709253
-26.486045 -32.195032 1335.709016
-26.537143 -31.459159 1335.708804
-26.581097 -30.734830 1335.708623
-26.618015 -30.020535 1335.708476
-26.648010 -29.314792 1335.708370
-26.671349 -28.616774 1335.708304
-26.688451 -27.926301 1335.708276
-26.699740 -27.243225 1335.708282
-26.705641 -26.567397 1335.708321
-26.706579 -25.898666 1335.708387
-26.702978 -25.236885 1335.708480
-26.695263 -24.581904 1335.708595
-26.683860 -23.933573 1335.708729
-26.669193 -23.291743 1335.708880
-26.651687 -22.656266 1335.709044
-26.631766 -22.026991 1335.709218
-26.609856 -21.403769 1335.709400
-26.586382 -20.786452 1335.709585
-26.561767 -20.174889 1335.709772
-26.536438 -19.568933 1335.709957
-26.510818 -18.968432 1335.710137
-26.485333 -18.373239 1335.710309
-26.460407 -17.783204 1335.710470
-26.436466 -17.198178 1335.710617
-26.413933 -16.618011 1335.710747
-26.393235 -16.042554 1335.710856
-26.374795 -15.471658 1335.710943
-26.358943 -14.905181 1335.711003
-26.345627 -14.343014 1335.711040
-26.334698 -13.785052 1335.711053
-26.326009 -13.231194 1335.711046
-26.319411 -12.681336 1335.711020
-26.314757 -12.135376 1335.710976
-26.311898 -11.593211 1335.710917
-26.310686 -11.054738 1335.710845
-26.310974 -10.519854 1335.710760
-26.312612 -9.988457 1335.710666
-26.315454 -9.460444 1335.710564
-26.319351 -8.935711 1335.710455
-26.324156 -8.414157 1335.710342
-26.329719 -7.895678 1335.710227
-26.335894 -7.380172 1335.710110
-26.342531 -6.867535 1335.709995
-26.349484 -6.357666 1335.709882
-26.356604 -5.850461 1335.709774
-26.363742 -5.345817 1335.709672
-26.370752 -4.843632 1335.709579
-26.377484 -4.343803 1335.709496
-26.383792 -3.846227 1335.709425
-26.389529 -3.350799 1335.709367
-26.394627 -2.857370 1335.709323
-26.399093 -2.365747 1335.709293
-26.402934 -1.875733 1335.709276
-26.406161 -1.387133 1335.709270
-26.408782 -0.899751 1335.709274
-26.410808 -0.413390 1335.709289
-26.412247 0.072143 1335.709313
-26.413109 0.557046 1335.709344
-26.413404 1.041514 1335.709383
-26.413140 1.525744 1335.709429
-26.412326 2.009929 1335.709480
-26.410973 2.494267 1335.709535
-26.409090 2.978954 1335.709595
-26.406685 3.464184 1335.709657
-26.403769 3.950154 1335.709722
-26.400350 4.437060 1335.709788
-26.396438 4.925096 1335.709854
-26.392042 5.414460 1335.709919
-26.387172 5.905347 1335.709983
-26.381837 6.397952 1335.710045
-26.376046 6.892471 1335.710104
-26.369809 7.389101 1335.710159
-26.363144 7.887970 1335.710209
-26.356113 8.388945 1335.710254
-26.348784 8.891824 1335.710294
-26.341229 9.396408 1335.710330
-26.333517 9.902495 1335.710361
-26.325718 10.409885 1335.710387
-26.317902 10.918378 1335.710409
-26.310139 11.427772 1335.710426
-26.302499 11.937868 1335.710438
-26.295053 12.448465 1335.710446
-26.287870 12.959362 1335.710449
-26.281021 13.470358 1335.710447
-26.274574 13.981254 1335.710441
-26.268602 14.491848 1335.710431
-26.263173 15.001940 1335.710416
-26.258357 15.511329 1335.710397
-26.254225 16.019816 1335.710373
-26.250846 16.527198 1335.710345
-26.248291 17.033276 1335.710313
-26.246630 17.537850 1335.710276
-26.245933 18.040718 1335.710236
-26.246269 18.541680 1335.710191
-26.247706 19.040550 1335.710141
-26.250249 19.537479 1335.710088
-26.253839 20.032956 1335.710032
-26.258414 20.527484 1335.709974
-26.263915 21.021565 1335.709914
-26.270278 21.515703 1335.709853
-26.277443 22.010401 1335.709793
-26.285349 22.506162 1335.709733
-26.293935 23.003489 1335.709675
-26.303139 23.502884 1335.709619
-26.312899 24.004852 1335.709566
-26.323156 24.509894 1335.709517
-26.333847 25.018514 1335.709472
-26.344912 25.531215 1335.709433
-26.356289 26.048501 1335.709400
-26.367916 26.570873 1335.709374
-26.379733 27.098835 1335.709356
-26.391679 27.632890 1335.709345
-26.403692 28.173541 1335.709344
-26.415710 28.721292 1335.709353
-26.427673 29.276644 1335.709373
-26.439520 29.840102 1335.709404
-26.451189 30.412168 1335.709448
-26.462649 30.993176 1335.709504
-26.473992 31.582786 1335.709571
-26.485342 32.180487 1335.709648
-26.496819 32.785769 1335.709733
-26.508547 33.398124 1335.709825
-26.520648 34.017040 1335.709922
-26.533244 34.642008 1335.710022
-26.546458 35.272519 1335.710124
-26.560412 35.908062 1335.710226
-26.575228 36.548127 1335.710327
-26.591029 37.192205 1335.710424
-26.607937 37.839786 1335.710517
-26.626076 38.490360 1335.710604
-26.645566 39.143416 1335.710683
-26.666530 39.798446 1335.710752
-26.689092 40.454940 1335.710811
-26.713372 41.112386 1335.710856
-26.739494 41.770277 1335.710888
-26.767581 42.428101 1335.710903
-26.797753 43.085349 1335.710902
-26.830135 43.741511 1335.710881
-26.864847 44.396077 1335.710839
-26.902006 45.048577 1335.710775
-26.941551 45.699445 1335.710690
-26.983246 46.350017 1335.710585
-27.026850 47.001673 1335.710465
-27.072119 47.655788 1335.710330
-27.118811 48.313740 1335.710185
-27.166684 48.976906 1335.710032
-27.215494 49.646664 1335.709873
-27.265000 50.324391 1335.709712
-27.314958 51.011464 1335.709551
-27.365127 51.709261 1335.709392
-27.415262 52.419158 1335.709239
-27.465123 53.142533 1335.709095
-27.514465 53.880763 1335.708961
-27.563047 54.635225 1335.708841
-27.610626 55.407298 1335.708737
-27.656959 56.198357 1335.708652
-27.701804 57.009780 1335.708589
-27.744917 57.842945 1335.708551
-27.786058 58.699228 1335.708540
-27.824982 59.580008 1335.708559
-27.861447 60.486661 1335.708610
-27.895211 61.420564 1335.708697
-27.926232 62.382552 1335.708821
-27.955278 63.371289 1335.708979
-27.983316 64.384894 1335.709165
-28.011314 65.421490 1335.709376
-28.040240 66.479196 1335.709606
-28.071062 67.556133 1335.709851
-28.104748 68.650423 1335.710107
-28.142266 69.760184 1335.710368
-28.184585 70.883540 1335.710631
-28.232672 72.018609 1335.710890
-28.287495 73.163512 1335.711141
-28.350023 74.316371 1335.711379
-28.421223 75.475306 1335.711600
-28.502063 76.638438 1335.711799
-28.593512 77.803887 1335.711971
-28.696538 78.969774 1335.712112
-28.812108 80.134220 1335.712217
-28.941190 81.295346 1335.712282
-29.084753 82.451271 1335.712301
-29.243765 83.600118 1335.712271
-29.419193 84.740006 1335.712187
-29.612006 85.869056 1335.712043
-29.823141 86.985481 1335.711836
-30.052830 88.089606 1335.711568
-30.300599 89.183869 1335.711247
-30.565945 90.270800 1335.710883
-30.848362 91.352929 1335.710483
-31.147347 92.432785 1335.710057
-31.462395 93.512899 1335.709613
-31.793003 94.595799 1335.709161
-32.138665 95.684017 1335.708708
-32.498879 96.780081 1335.708265
-32.873138 97.886523 1335.707839
-33.260940 99.005870 1335.707440
-33.661780 100.140654 1335.707076
-34.075154 101.293405 1335.706757
-34.500557 102.466651 1335.706490
-34.937485 103.662923 1335.706285
-35.385434 104.884751 1335.706150
-35.843901 106.134664 1335.706095
-36.312379 107.415192 1335.706128
-36.790366 108.728866 1335.706257
-37.277358 110.078215 1335.706493
-37.772848 111.465768 1335.706843
-38.276335 112.894057 1335.707316
-38.787600 114.364606 1335.707916
-39.307572 115.874930 1335.708624
-39.837469 117.421538 1335.709414
-40.378506 119.000940 1335.710264
-40.931901 120.609646 1335.711147
-41.498870 122.244166 1335.712040
-42.080628 123.901009 1335.712918
-42.678393 125.576686 1335.713757
-43.293382 127.267707 1335.714532
-43.926810 128.970580 1335.715218
-44.579894 130.681817 1335.715792
-45.253850 132.397926 1335.716228
-45.949896 134.115419 1335.716502
-46.669246 135.830804 1335.716589
-47.413119 137.540591 1335.716466
-48.182731 139.241291 1335.716108
-48.979297 140.929413 1335.715489
-49.804034 142.601467 1335.714586
-50.658159 144.253963 1335.713374
-51.542889 145.883411 1335.711829
-52.459439 147.486321 1335.709925
-53.409027 149.059202 1335.707639
-54.392808 150.598579 1335.704948
-55.410565 152.101328 1335.701857
-56.460702 153.564673 1335.698403
-57.541568 154.985852 1335.694622
-58.651506 156.362107 1335.690552
-59.788865 157.690675 1335.686230
-60.951990 158.968798 1335.681693
-62.139226 160.193713 1335.676978
-63.348922 161.362662 1335.672122
-64.579422 162.472883 1335.667163
-65.829072 163.521616 1335.662137
-67.096220 164.506101 1335.657082
-68.379211 165.423577 1335.652035
-69.676391 166.271283 1335.647033
-70.986107 167.046460 1335.642113
-72.306705 167.746346 1335.637312
-73.636530 168.368182 1335.632668
-74.973930 168.909206 1335.628217
-76.317250 169.366659 1335.623997
-77.664837 169.737780 1335.620045
-79.015037 170.019808 1335.616397
-80.366196 170.209984 1335.613092
-81.716659 170.305546 1335.610166
-83.065198 170.305577 1335.607646
-84.412275 170.216537 1335.605518
-85.758775 170.046727 1335.603759
-87.105587 169.804450 1335.602345
-88.453596 169.498006 1335.601252
-89.803689 169.135698 1335.600455
-91.156752 168.725829 1335.599932
-92.513672 168.276700 1335.599659
-93.875334 167.796613 1335.599610
-95.242627 167.293870 1335.599763
-96.616436 166.776773 1335.600094
-97.997647 166.253624 1335.600579
-99.387148 165.732726 1335.601194
-100.785824 165.222380 1335.601915
-102.194562 164.730887 1335.602718
-103.614249 164.266551 1335.603580
-105.045771 163.837673 1335.604476
-106.490014 163.452555 1335.605383
-107.947865 163.119500 1335.606277
-109.420211 162.846808 1335.607134
-110.907938 162.642783 1335.607930
-112.411932 162.515725 1335.608641
-113.933029 162.473595 1335.609244
-115.470881 162.516456 1335.609738
-117.023958 162.636476 1335.610140
-118.590681 162.825483 1335.610470
-120.169467 163.075302 1335.610748
-121.758737 163.377759 1335.610994
-123.356908 163.724681 1335.611225
-124.962401 164.107892 1335.611464
-126.573634 164.519220 1335.611727
-128.189026 164.950489 1335.612036
-129.806997 165.393527 1335.612410
-131.425966 165.840160 1335.612867
-133.044351 166.282212 1335.613428
-134.660572 166.711510 1335.614113
-136.273047 167.119881 1335.614939
-137.880197 167.499150 1335.615928
-139.480439 167.841143 1335.617099
-141.072194 168.137686 1335.618470
-142.653880 168.380606 1335.620063
-144.223916 168.561728 1335.621895
-145.780721 168.672877 1335.623986
-147.322715 168.705882 1335.626357
-148.848316 168.652566 1335.629026
-150.356059 168.506681 1335.632005
-151.844937 168.269675 1335.635270
-153.314059 167.944921 1335.638790
-154.762534 167.535791 1335.642534
-156.189469 167.045659 1335.646469
-157.593975 166.477896 1335.650565
-158.975159 165.835877 1335.654789
-160.332130 165.122973 1335.659111
-161.663996 164.342558 1335.663498
-162.969867 163.498004 1335.667919
-164.248851 162.592684 1335.672343
-165.500056 161.629971 1335.676738
-166.722592 160.613237 1335.681073
-167.915566 159.545855 1335.685315
-169.078088 158.431199 1335.689434
-170.209266 157.272641 1335.693398
-171.308209 156.073553 1335.697175
-172.374025 154.837308 1335.700734
-173.405824 153.567280 1335.704044
-174.402713 152.266841 1335.707072
-175.363801 150.939363 1335.709787
-176.288197 149.588221 1335.712157
-177.175068 148.216747 1335.714153
-178.024930 146.827404 1335.715771
-178.839646 145.421780 1335.717035
-179.621139 144.001425 1335.717968
-180.371331 142.567889 1335.718596
-181.092144 141.122722 1335.718943
-181.785501 139.667473 1335.719034
-182.453323 138.203694 1335.718894
-183.097533 136.732935 1335.718547
-183.720054 135.256744 1335.718019
-184.322808 133.776673 1335.717333
-184.907717 132.294271 1335.716514
-185.476703 130.811089 1335.715588
-186.031688 129.328676 1335.714578
-186.574596 127.848583 1335.713509
-187.107347 126.372360 1335.712407
-187.631866 124.901556 1335.711295
-188.150073 123.437722 1335.710199
-188.663891 121.982408 1335.709143
-189.175242 120.537164 1335.708151
-189.686050 119.103540 1335.707249
-190.198235 117.683086 1335.706461
-190.713721 116.277352 1335.705812
-191.233869 114.887444 1335.705320
-191.757801 113.512686 1335.704980
-192.284078 112.151959 1335.704782
-192.811261 110.804142 1335.704713
-193.337913 109.468117 1335.704762
-193.862593 108.142764 1335.704918
-194.383864 106.826962 1335.705170
-194.900286 105.519592 1335.705507
-195.410422 104.219535 1335.705917
-195.912831 102.925670 1335.706389
-196.406076 101.636878 1335.706912
-196.888718 100.352039 1335.707475
-197.359318 99.070033 1335.708066
-197.816437 97.789741 1335.708674
-198.258637 96.510043 1335.709287
-198.684478 95.229819 1335.709895
-199.092523 93.947949 1335.710487
-199.481333 92.663314 1335.711050
-199.849468 91.374794 1335.711574
-200.195491 90.081269 1335.712047
-200.517961 88.781619 1335.712459
-200.815442 87.474725 1335.712798
-201.086514 86.159503 1335.713052
-201.330245 84.835688 1335.713220
-201.546186 83.503838 1335.713308
-201.733909 82.164544 1335.713322
-201.892985 80.818398 1335.713268
-202.022988 79.465994 1335.713153
-202.123488 78.107922 1335.712982
-202.194059 76.744776 1335.712763
-202.234273 75.377147 1335.712502
-202.243700 74.005627 1335.712205
-202.221914 72.630809 1335.711879
-202.168487 71.253284 1335.711529
-202.082991 69.873646 1335.711163
-201.964997 68.492486 1335.710786
-201.814078 67.110395 1335.710405
-201.629807 65.727967 1335.710026
-201.411754 64.345794 1335.709657
-201.159493 62.964468 1335.709302
-200.872594 61.584580 1335.708968
-200.550632 60.206723 1335.708662
-200.193176 58.831490 1335.708391
-199.799801 57.459472 1335.708160
-199.370077 56.091261 1335.707975
-198.904168 54.727486 1335.707843
-198.404603 53.368918 1335.707759
-197.874503 52.016365 1335.707722
-197.316988 50.670634 1335.707727
-196.735178 49.332533 1335.707771
-196.132194 48.002869 1335.707849
-195.511155 46.682450 1335.707959
-194.875183 45.372083 1335.708097
-194.227398 44.072576 1335.708259
-193.570919 42.784736 1335.708441
-192.908869 41.509371 1335.708640
-192.244365 40.247288 1335.708852
-191.580530 38.999295 1335.709074
-190.920484 37.766199 1335.709301
-190.267346 36.548808 1335.709530
-189.624238 35.347930 1335.709758
-188.994279 34.164371 1335.709981
-188.380590 32.998940 1335.710196
-187.786291 31.852443 1335.710397
-187.214504 30.725689 1335.710583
-186.668347 29.619485 1335.710749
-186.150941 28.534638 1335.710892
-185.665311 27.471916 1335.711008
-185.212250 26.431174 1335.711096
-184.790328 25.411351 1335.711158
-184.398013 24.411349 1335.711196
-184.033778 23.430067 1335.711211
-183.696091 22.466406 1335.711205
-183.383424 21.519268 1335.711180
-183.094248 20.587553 1335.711138
-182.827032 19.670161 1335.711081
-182.580247 18.765992 1335.711010
-182.352364 17.873949 1335.710927
-182.141853 16.992930 1335.710834
-181.947185 16.121837 1335.710732
-181.766830 15.259571 1335.710624
-181.599259 14.405032 1335.710511
-181.442941 13.557120 1335.710395
-181.296349 12.714737 1335.710278
-181.157952 11.876783 1335.710162
-181.026220 11.042158 1335.710047
-180.899625 10.209763 1335.709937
-180.776636 9.378499 1335.709833
-180.655724 8.547267 1335.709736
s
-181.038390 7.666395 1333.679797
-180.915101 6.837995 1333.679742
-180.786765 6.007660 1333.679693
-180.654290 5.175252 1333.679653
-180.518584 4.340629 1333.679618
-180.380554 3.503651 1333.679591
-180.241109 2.664177 1333.679570
-180.101157 1.822068 1333.679555
-179.961605 0.977184 1333.679546
-179.823360 0.129382 1333.679543
-179.687332 -0.721476 1333.679545
-179.554427 -1.575531 1333.679551
-179.425554 -2.432923 1333.679563
-179.301620 -3.293794 1333.679579
-179.183534 -4.158282 1333.679599
-179.072202 -5.026529 1333.679623
-178.968534 -5.898675 1333.679651
-178.873436 -6.774859 1333.679682
-178.787817 -7.655224 1333.679716
-178.712584 -8.539908 1333.679754
-178.648645 -9.429053 1333.679793
-178.596909 -10.322798 1333.679835
-178.558282 -11.221284 1333.679879
-178.533638 -12.124648 1333.679924
-178.523034 -13.032948 1333.679971
-178.525714 -13.946162 1333.680019
-178.540886 -14.864267 1333.680067
-178.567758 -15.787237 1333.680115
-178.605538 -16.715049 1333.680163
-178.653435 -17.647677 1333.680209
-178.710657 -18.585098 1333.680254
-178.776411 -19.527286 1333.680296
-178.849905 -20.474217 1333.680336
-178.930349 -21.425867 1333.680373
-179.016950 -22.382212 1333.680406
-179.108916 -23.343225 1333.680435
-179.205455 -24.308885 1333.680460
-179.305776 -25.279164 1333.680479
-179.409086 -26.254040 1333.680493
-179.514594 -27.233488 1333.680501
-179.621508 -28.217482 1333.680502
-179.729036 -29.206000 1333.680497
-179.836386 -30.199015 1333.680483
-179.942766 -31.196504 1333.680462
-180.047384 -32.198442 1333.680432
-180.149449 -33.204805 1333.680393
-180.248454 -34.215831 1333.680345
-180.345035 -35.232808 1333.680289
-180.440114 -36.257290 1333.680226
-180.534610 -37.290828 1333.680157
-180.629447 -38.334973 1333.680083
-180.725545 -39.391278 1333.680007
-180.823826 -40.461295 1333.679928
-180.925210 -41.546576 1333.679848
-181.030620 -42.648672 1333.679769
-181.140976 -43.769136 1333.679692
-181.257200 -44.909519 1333.679617
-181.380213 -46.071374 1333.679547
-181.510937 -47.256252 1333.679483
-181.650293 -48.465706 1333.679425
-181.799201 -49.701286 1333.679375
-181.958585 -50.964546 1333.679334
-182.129364 -52.257037 1333.679304
-182.312460 -53.580311 1333.679285
-182.508794 -54.935920 1333.679280
-182.719289 -56.325417 1333.679289
-182.944864 -57.750351 1333.679313
-183.186442 -59.212277 1333.679354
-183.444849 -60.712639 1333.679412
-183.718723 -62.250438 1333.679488
-184.004518 -63.822226 1333.679579
-184.298589 -65.424451 1333.679683
-184.597295 -67.053562 1333.679797
-184.896993 -68.706004 1333.679919
-185.194038 -70.378226 1333.680045
-185.484789 -72.066676 1333.680175
-185.765603 -73.767799 1333.680306
-186.032837 -75.478045 1333.680434
-186.282847 -77.193860 1333.680559
-186.511991 -78.911692 1333.680676
-186.716627 -80.627989 1333.680785
-186.893110 -82.339197 1333.680882
-187.037799 -84.041764 1333.680965
-187.147049 -85.732138 1333.681032
-187.217220 -87.406766 1333.681080
-187.244666 -89.062096 1333.681107
-187.225746 -90.694574 1333.681111
-187.156817 -92.300649 1333.681088
-187.034236 -93.876767 1333.681038
-186.854360 -95.419377 1333.680956
-186.613545 -96.924926 1333.680842
-186.309396 -98.391031 1333.680693
-185.944505 -99.819994 1333.680513
-185.522709 -101.215286 1333.680309
-185.047846 -102.580377 1333.680084
-184.523756 -103.918740 1333.679845
-183.954275 -105.233845 1333.679595
-183.343243 -106.529164 1333.679342
-182.694497 -107.808167 1333.679088
-182.011876 -109.074327 1333.678841
-181.299218 -110.331115 1333.678604
-180.560360 -111.582001 1333.678383
-179.799142 -112.830458 1333.678184
-179.019402 -114.079955 1333.678011
-178.224977 -115.333965 1333.677869
-177.419705 -116.595959 1333.677764
-176.607426 -117.869408 1333.677701
-175.791977 -119.157784 1333.677685
-174.977196 -120.464556 1333.677721
-174.166923 -121.793198 1333.677815
-173.364993 -123.147180 1333.677971
-172.575247 -124.529973 1333.678194
-171.801522 -125.945049 1333.678490
-171.047506 -127.395746 1333.678864
-170.313411 -128.882334 1333.679311
-169.595979 -130.402020 1333.679819
-168.891798 -131.951875 1333.680372
-168.197456 -133.528971 1333.680958
-167.509544 -135.130380 1333.681563
-166.824650 -136.753173 1333.682173
-166.139363 -138.394422 1333.682774
-165.450273 -140.051200 1333.683353
-164.753968 -141.720577 1333.683896
-164.047037 -143.399627 1333.684389
-163.326069 -145.085420 1333.684819
-162.587653 -146.775028 1333.685171
-161.828379 -148.465524 1333.685433
-161.044836 -150.153979 1333.685590
-160.233612 -151.837465 1333.685629
-159.391296 -153.513053 1333.685536
-158.514477 -155.177816 1333.685297
-157.599746 -156.828826 1333.684898
-156.643689 -158.463153 1333.684327
-155.642897 -160.077871 1333.683568
-154.593959 -161.670050 1333.682610
-153.493464 -163.236763 1333.681436
-152.339044 -164.774894 1333.680040
-151.132513 -166.280573 1333.678431
-149.876726 -167.749746 1333.676624
-148.574540 -169.178356 1333.674635
-147.228812 -170.562346 1333.672479
-145.842398 -171.897660 1333.670171
-144.418154 -173.180243 1333.667726
-142.958937 -174.406037 1333.665160
-141.467603 -175.570987 1333.662487
-139.947009 -176.671037 1333.659724
-138.400011 -177.702129 1333.656885
-136.829466 -178.660209 1333.653985
-135.238230 -179.541219 1333.651040
-133.629160 -180.341104 1333.648064
-132.005112 -181.055808 1333.645074
-130.368942 -181.681273 1333.642084
-128.723508 -182.213444 1333.639110
-127.071664 -182.648265 1333.636166
-125.416269 -182.981679 1333.633269
-123.760178 -183.209630 1333.630432
-122.106248 -183.328063 1333.627673
-120.457336 -183.332920 1333.625004
-118.816213 -183.220444 1333.622443
-117.183727 -182.993743 1333.619996
-115.558798 -182.662791 1333.617668
-113.940262 -182.237860 1333.615462
-112.326957 -181.729223 1333.613378
-110.717718 -181.147153 1333.611421
-109.111383 -180.501921 1333.609592
-107.506787 -179.803801 1333.607895
-105.902768 -179.063063 1333.606331
-104.298162 -178.289982 1333.604904
-102.691806 -177.494829 1333.603615
-101.082537 -176.687876 1333.602468
-99.469190 -175.879397 1333.601466
-97.850602 -175.079664 1333.600610
-96.225611 -174.298948 1333.599903
-94.593053 -173.547523 1333.599348
-92.951764 -172.835660 1333.598948
-91.300581 -172.173633 1333.598704
-89.638340 -171.571713 1333.598620
-87.963879 -171.040173 1333.598699
-86.276033 -170.589286 1333.598942
-84.573640 -170.229324 1333.599352
-82.855536 -169.970558 1333.599932
-81.121269 -169.819491 1333.600683
-79.373234 -169.767531 1333.601598
-77.614537 -169.802318 1333.602670
-75.848285 -169.911491 1333.603889
-74.077583 -170.082688 1333.605247
-72.305539 -170.303547 1333.606737
-70.535259 -170.561708 1333.608351
-68.769849 -170.844809 1333.610079
-67.012414 -171.140487 1333.611914
-65.266063 -171.436383 1333.613848
-63.533901 -171.720134 1333.615872
-61.819034 -171.979380 1333.617978
-60.124568 -172.201758 1333.620159
-58.453611 -172.374908 1333.622405
-56.809268 -172.486467 1333.624708
-55.194646 -172.524075 1333.627061
-53.612851 -172.475370 1333.629455
-52.066989 -172.327991 1333.631882
-50.560167 -172.069576 1333.634334
-49.095491 -171.687763 1333.636802
-47.676067 -171.170192 1333.639279
-46.305003 -170.504502 1333.641755
-44.985303 -169.678787 1333.644224
-43.717682 -168.691676 1333.646677
-42.500557 -167.552324 1333.649109
-41.332247 -166.270346 1333.651512
-40.211071 -164.855357 1333.653882
-39.135347 -163.316970 1333.656211
-38.103394 -161.664801 1333.658493
-37.113530 -159.908463 1333.660721
-36.164076 -158.057572 1333.662891
-35.253348 -156.121741 1333.664994
-34.379666 -154.110585 1333.667026
-33.541349 -152.033719 1333.668979
-32.736715 -149.900757 1333.670848
-31.964082 -147.721313 1333.672625
-31.221770 -145.505001 1333.674306
-30.508098 -143.261437 1333.675883
-29.821383 -141.000235 1333.677350
-29.159945 -138.731009 1333.678701
-28.522102 -136.463373 1333.679929
-27.906173 -134.206943 1333.681029
-27.310477 -131.971331 1333.681993
-26.733332 -129.766154 1333.682817
-26.173057 -127.601025 1333.683492
-25.628371 -125.483525 1333.684017
-25.099590 -123.413099 1333.684398
-24.587432 -121.387162 1333.684646
-24.092614 -119.403123 1333.684770
-23.615852 -117.458397 1333.684783
-23.157864 -115.550394 1333.684693
-22.719367 -113.676528 1333.684512
-22.301078 -111.834210 1333.684250
-21.903713 -110.020854 1333.683916
-21.527990 -108.233870 1333.683522
-21.174626 -106.470672 1333.683077
-20.844338 -104.728672 1333.682593
-20.537842 -103.005281 1333.682080
-20.255857 -101.297913 1333.681547
-19.999098 -99.603979 1333.681005
-19.768283 -97.920892 1333.680465
-19.564129 -96.246064 1333.679937
-19.387352 -94.576908 1333.679432
-19.238671 -92.910834 1333.678959
-19.118801 -91.245257 1333.678529
-19.028460 -89.577588 1333.678153
-18.968365 -87.905239 1333.677841
-18.939181 -86.225725 1333.677603
-18.940377 -84.538902 1333.677440
-18.970223 -82.846970 1333.677349
-19.026942 -81.152229 1333.677323
-19.108751 -79.456982 1333.677357
-19.213872 -77.763530 1333.677445
-19.340524 -76.074173 1333.677581
-19.486928 -74.391214 1333.677759
-19.651303 -72.716953 1333.677975
-19.831869 -71.053691 1333.678222
-20.026847 -69.403731 1333.678495
-20.234456 -67.769373 1333.678787
-20.452916 -66.152919 1333.679095
-20.680448 -64.556669 1333.679410
-20.915271 -62.982926 1333.679729
-21.155605 -61.433990 1333.680046
-21.399671 -59.912163 1333.680354
-21.645688 -58.419746 1333.680648
-21.891876 -56.959040 1333.680922
-22.136456 -55.532347 1333.681172
-22.377647 -54.141968 1333.681390
-22.613669 -52.790204 1333.681572
-22.842743 -51.479356 1333.681712
-23.063394 -50.211074 1333.681806
-23.275376 -48.984396 1333.681855
-23.478747 -47.797710 1333.681863
-23.673566 -46.649403 1333.681834
-23.859893 -45.537861 1333.681771
-24.037786 -44.461472 1333.681678
-24.207304 -43.418622 1333.681557
-24.368506 -42.407698 1333.681414
-24.521451 -41.427088 1333.681250
-24.666198 -40.475178 1333.681070
-24.802807 -39.550355 1333.680877
-24.931336 -38.651006 1333.680675
-25.051844 -37.775519 1333.680467
-25.164390 -36.922279 1333.680256
-25.269033 -36.089674 1333.680046
-25.365832 -35.276091 1333.679841
-25.454846 -34.479918 1333.679644
-25.536134 -33.699539 1333.679458
-25.609756 -32.933344 1333.679288
-25.675769 -32.179718 1333.679135
-25.734233 -31.437049 1333.679005
-25.785208 -30.703724 1333.678901
-25.828759 -29.978161 1333.678825
-25.865148 -29.259531 1333.678778
-25.894826 -28.547750 1333.678759
-25.918254 -27.842770 1333.678765
-25.935892 -27.144541 1333.678794
-25.948201 -26.453013 1333.678844
-25.955641 -25.768138 1333.678912
-25.958673 -25.089866 1333.678997
-25.957758 -24.418148 1333.679095
-25.953355 -23.752933 1333.679205
-25.945926 -23.094174 1333.679325
-25.935931 -22.441820 1333.679453
-25.923831 -21.795821 1333.679585
-25.910085 -21.156130 1333.679720
-25.895155 -20.522695 1333.679856
-25.879501 -19.895469 1333.679991
-25.863584 -19.274401 1333.680121
-25.847864 -18.659442 1333.680246
-25.832802 -18.050542 1333.680363
-25.818858 -17.447653 1333.680469
-25.806493 -16.850725 1333.680562
-25.796167 -16.259708 1333.680641
-25.788340 -15.674554 1333.680702
-25.783359 -15.095187 1333.680745
-25.781103 -14.521437 1333.680770
-25.781338 -13.953106 1333.680778
-25.783831 -13.389999 1333.680771
-25.788347 -12.831919 1333.680750
-25.794651 -12.278669 1333.680717
-25.802509 -11.730052 1333.680672
-25.811686 -11.185873 1333.680617
-25.821949 -10.645935 1333.680554
-25.833062 -10.110042 1333.680483
-25.844792 -9.577996 1333.680407
-25.856904 -9.049601 1333.680326
-25.869164 -8.524662 1333.680242
-25.881336 -8.002981 1333.680156
-25.893188 -7.484361 1333.680069
-25.904484 -6.968608 1333.679984
-25.914990 -6.455523 1333.679901
-25.924472 -5.944911 1333.679821
-25.932695 -5.436575 1333.679746
-25.939424 -4.930318 1333.679677
-25.944427 -4.425945 1333.679616
-25.947467 -3.923258 1333.679564
-25.948318 -3.422063 1333.679522
-25.946915 -2.922194 1333.679491
-25.943356 -2.423518 1333.679469
-25.937744 -1.925903 1333.679457
-25.930185 -1.429216 1333.679454
-25.920783 -0.933325 1333.679458
-25.909643 -0.438096 1333.679470
-25.896869 0.056603 1333.679489
-25.882566 0.550903 1333.679513
-25.866838 1.044939 1333.679543
-25.849791 1.538842 1333.679578
-25.831529 2.032745 1333.679617
-25.812155 2.526780 1333.679659
-25.791776 3.021080 1333.679704
-25.770495 3.515778 1333.679751
-25.748417 4.011006 1333.679799
-25.725647 4.506896 1333.679849
-25.702289 5.003582 1333.679898
-25.678448 5.501195 1333.679947
-25.654229 5.999869 1333.679995
-25.629735 6.499735 1333.680041
-25.605072 7.000927 1333.680084
-25.580344 7.503577 1333.680125
-25.555657 8.007772 1333.680161
-25.531115 8.513417 1333.680194
-25.506826 9.020373 1333.680223
-25.482894 9.528500 1333.680249
-25.459428 10.037657 1333.680271
-25.436532 10.547705 1333.680289
-25.414313 11.058505 1333.680304
-25.392877 11.569915 1333.680316
-25.372331 12.081796 1333.680324
-25.352780 12.594009 1333.680328
-25.334331 13.106413 1333.680329
-25.317089 13.618868 1333.680327
-25.301162 14.131235 1333.680322
-25.286654 14.643373 1333.680313
-25.273673 15.155143 1333.680302
-25.262325 15.666404 1333.680287
-25.252716 16.177017 1333.680269
-25.244951 16.686842 1333.680248
-25.239138 17.195739 1333.680223
-25.235382 17.703568 1333.680196
-25.233789 18.210189 1333.680166
-25.234466 18.715462 1333.680134
-25.237514 19.219259 1333.680098
-25.242896 19.721742 1333.680060
-25.250442 20.223359 1333.680019
-25.259977 20.724571 1333.679978
-25.271323 21.225839 1333.679935
-25.284304 21.727623 1333.679892
-25.298744 22.230386 1333.679849
-25.314467 22.734587 1333.679806
-25.331295 23.240689 1333.679765
-25.349054 23.749152 1333.679725
-25.367566 24.260436 1333.679688
-25.386654 24.775004 1333.679653
-25.406143 25.293316 1333.679622
-25.425856 25.815833 1333.679595
-25.445617 26.343017 1333.679571
-25.465249 26.875327 1333.679553
-25.484577 27.413226 1333.679540
-25.503422 27.957175 1333.679533
-25.521610 28.507634 1333.679532
-25.538964 29.065064 1333.679539
-25.555307 29.629926 1333.679553
-25.570464 30.202682 1333.679575
-25.584256 30.783793 1333.679605
-25.596572 31.373568 1333.679644
-25.607550 31.971709 1333.679692
-25.617391 32.577770 1333.679746
-25.626296 33.191302 1333.679806
-25.634467 33.811856 1333.679870
-25.642105 34.438984 1333.679938
-25.649412 35.072238 1333.680008
-25.656588 35.711169 1333.680080
-25.663837 36.355330 1333.680152
-25.671358 37.004272 1333.680222
-25.679353 37.657546 1333.680291
-25.688024 38.314705 1333.680356
-25.697572 38.975300 1333.680417
-25.708198 39.638883 1333.680472
-25.720104 40.305006 1333.680521
-25.733492 40.973219 1333.680562
-25.748562 41.643076 1333.680594
-25.765516 42.314128 1333.680616
-25.784555 42.985926 1333.680627
-25.805881 43.658022 1333.680626
-25.829696 44.329968 1333.680612
-25.856200 45.001316 1333.680583
-25.885585 45.671653 1333.680538
-25.917830 46.341383 1333.680478
-25.952696 47.011731 1333.680405
-25.989935 47.683954 1333.680321
-26.029302 48.359311 1333.680227
-26.070549 49.039061 1333.680125
-26.113428 49.724463 1333.680018
-26.157694 50.416774 1333.679907
-26.203098 51.117254 1333.679794
-26.249394 51.827161 1333.679681
-26.296335 52.547753 1333.679570
-26.343673 53.280289 1333.679463
-26.391162 54.026028 1333.679362
-26.438555 54.786229 1333.679268
-26.485604 55.562149 1333.679184
-26.532062 56.355047 1333.679111
-26.577683 57.166183 1333.679052
-26.622218 57.996814 1333.679008
-26.665423 58.848199 1333.678981
-26.707048 59.721597 1333.678973
-26.746848 60.618266 1333.678987
-26.784574 61.539465 1333.679023
-26.819981 62.486452 1333.679084
-26.853024 63.459988 1333.679170
-26.884475 64.458840 1333.679281
-26.915309 65.481278 1333.679411
-26.946499 66.525570 1333.679559
-26.979022 67.589985 1333.679720
-27.013851 68.672793 1333.679892
-27.051961 69.772264 1333.680071
-27.094327 70.886665 1333.680254
-27.141924 72.014267 1333.680438
-27.195727 73.153338 1333.680620
-27.256710 74.302148 1333.680796
-27.325847 75.458965 1333.680964
-27.404115 76.622060 1333.681119
-27.492486 77.789701 1333.681259
-27.591937 78.960157 1333.681380
-27.703442 80.131698 1333.681480
-27.827975 81.302592 1333.681555
-27.966511 82.471110 1333.681602
-28.120025 83.635519 1333.681617
-28.289492 84.794090 1333.681597
-28.475887 85.945091 1333.681540
-28.680183 87.086792 1333.681441
-28.903325 88.217544 1333.681299
-29.145542 89.337618 1333.681113
-29.406346 90.449197 1333.680891
-29.685221 91.554550 1333.680639
-29.981648 92.655944 1333.680361
-30.295110 93.755649 1333.680066
-30.625090 94.855932 1333.679758
-30.971069 95.959062 1333.679444
-31.332530 97.067306 1333.679130
-31.708956 98.182932 1333.678823
-32.099829 99.308210 1333.678527
-32.504631 100.445407 1333.678251
-32.922845 101.596791 1333.677998
-33.353952 102.764630 1333.677777
-33.797437 103.951194 1333.677592
-34.252780 105.158748 1333.677451
-34.719464 106.389563 1333.677358
-35.196972 107.645906 1333.677321
-35.684786 108.930045 1333.677346
-36.182389 110.244249 1333.677437
-36.689262 111.590785 1333.677603
-37.204889 112.971922 1333.677849
-37.728751 114.389928 1333.678180
-38.260614 115.846132 1333.678600
-38.801376 117.338106 1333.679094
-39.352219 118.862485 1333.679646
-39.914324 120.415903 1333.680238
-40.488872 121.994992 1333.680853
-41.077045 123.596386 1333.681474
-41.680023 125.216720 1333.682084
-42.298988 126.852626 1333.682664
-42.935122 128.500739 1333.683198
-43.589606 130.157693 1333.683669
-44.263620 131.820120 1333.684059
-44.958347 133.484654 1333.684352
-45.674967 135.147930 1333.684529
-46.414663 136.806581 1333.684573
-47.178614 138.457240 1333.684467
-47.968004 140.096542 1333.684195
-48.784011 141.721119 1333.683738
-49.627819 143.327606 1333.683079
-50.500609 144.912636 1333.682201
-51.403561 146.472843 1333.681087
-52.337857 148.004861 1333.679720
-53.304679 149.505323 1333.678081
-54.305148 150.970884 1333.676156
-55.339014 152.398686 1333.673948
-56.404658 153.786356 1333.671483
-57.500400 155.131542 1333.668788
-58.624560 156.431894 1333.665891
-59.775459 157.685061 1333.662817
-60.951415 158.888691 1333.659594
-62.150751 160.040432 1333.656248
-63.371786 161.137935 1333.652806
-64.612840 162.178848 1333.649294
-65.872233 163.160818 1333.645741
-67.148287 164.081497 1333.642171
-68.439320 164.938531 1333.638613
-69.743653 165.729570 1333.635092
-71.059607 166.452263 1333.631636
-72.385501 167.104259 1333.628272
-73.719656 167.683206 1333.625026
-75.060392 168.186753 1333.621924
-76.406030 168.612549 1333.618995
-77.754889 168.958242 1333.616263
-79.105289 169.221483 1333.613757
-80.455552 169.399919 1333.611503
-81.803997 169.491199 1333.609528
-83.149385 169.494631 1333.607851
-84.492236 169.416158 1333.606460
-85.833511 169.263385 1333.605338
-87.174172 169.043913 1333.604466
-88.515179 168.765345 1333.603824
-89.857493 168.435284 1333.603395
-91.202075 168.061333 1333.603159
-92.549887 167.651094 1333.603099
-93.901888 167.212171 1333.603194
-95.259041 166.752166 1333.603428
-96.622305 166.278682 1333.603780
-97.992643 165.799322 1333.604233
-99.371014 165.321689 1333.604767
-100.758381 164.853385 1333.605365
-102.155703 164.402013 1333.606007
-103.563941 163.975176 1333.606675
-104.984058 163.580477 1333.607350
-106.417013 163.225518 1333.608013
-107.863768 162.917903 1333.608647
-109.325283 162.665234 1333.609231
-110.802520 162.475114 1333.609748
-112.296440 162.355146 1333.610179
-113.807950 162.312619 1333.610506
-115.336753 162.347612 1333.610728
-116.881343 162.452994 1333.610860
-118.440164 162.621320 1333.610919
-120.011656 162.845146 1333.610922
-121.594264 163.117026 1333.610884
-123.186428 163.429516 1333.610822
-124.786592 163.775171 1333.610753
-126.393198 164.146546 1333.610693
-128.004688 164.536197 1333.610658
-129.619505 164.936679 1333.610665
-131.236091 165.340546 1333.610730
-132.852889 165.740355 1333.610870
-134.468340 166.128661 1333.611101
-136.080888 166.498019 1333.611438
-137.688974 166.840983 1333.611900
-139.291042 167.150110 1333.612502
-140.885533 167.417955 1333.613260
-142.470890 167.637072 1333.614191
-144.045555 167.800017 1333.615312
-145.607971 167.899346 1333.616639
-147.156580 167.927613 1333.618187
-148.689825 167.877374 1333.619974
-150.206246 167.742873 1333.622010
-151.704782 167.525111 1333.624276
-153.184469 167.226778 1333.626749
-154.644343 166.850564 1333.629404
-156.083442 166.399160 1333.632217
-157.500801 165.875254 1333.635165
-158.895457 165.281537 1333.638222
-160.266448 164.620699 1333.641365
-161.612808 163.895431 1333.644570
-162.933575 163.108421 1333.647812
-164.227786 162.262360 1333.651067
-165.494476 161.359938 1333.654312
-166.732684 160.403845 1333.657521
-167.941444 159.396771 1333.660671
-169.119793 158.341406 1333.663737
-170.266769 157.240441 1333.666696
-171.381408 156.096564 1333.669522
-172.462745 154.912465 1333.672193
-173.509819 153.690836 1333.674684
-174.521665 152.434366 1333.676970
-175.497320 151.145745 1333.679027
-176.435820 149.827662 1333.680832
-177.336262 148.482795 1333.682361
-178.199113 147.113485 1333.683611
-179.026216 145.721748 1333.684598
-179.819468 144.309580 1333.685342
-180.580771 142.878980 1333.685860
-181.312025 141.431947 1333.686170
-182.015130 139.970479 1333.686290
-182.691986 138.496573 1333.686238
-183.344493 137.012230 1333.686032
-183.974551 135.519446 1333.685691
-184.584060 134.020221 1333.685231
-185.174920 132.516552 1333.684672
-185.749032 131.010439 1333.684032
-186.308295 129.503878 1333.683327
-186.854610 127.998870 1333.682577
-187.389876 126.497411 1333.681799
-187.915995 125.001501 1333.681011
-188.434865 123.513138 1333.680232
-188.948388 122.034320 1333.679479
-189.458462 120.567045 1333.678771
-189.966989 119.113313 1333.678125
-190.475868 117.675120 1333.677559
-190.986999 116.254466 1333.677092
-191.501753 114.852799 1333.676737
-192.019373 113.469366 1333.676491
-192.538577 112.102864 1333.676345
-193.058078 110.751990 1333.676291
