46.2359  -226.153  843.467
45.7969  -225.761  843.301
45.358  -225.369  843.136
44.9191  -224.977  842.97
44.4801  -224.585  842.804
44.0412  -224.193  842.638
43.6023  -223.801  842.472
43.1633  -223.409  842.307
42.5066  -223.242  842.092
41.8498  -223.076  841.877
41.193  -222.909  841.663
40.5362  -222.743  841.448
39.8795  -222.576  841.234
39.2227  -222.409  841.019
38.5659  -222.243  840.805
37.9092  -222.076  840.59
37.2372  -221.976  840.376
36.5653  -221.876  840.163
35.8934  -221.776  839.949
35.2215  -221.676  839.735
34.5496  -221.576  839.521
33.8777  -221.476  839.307
33.2058  -221.375  839.093
32.5339  -221.275  838.879
31.8619  -221.175  838.666
31.19  -221.075  838.452
30.5181  -220.975  838.238
29.8462  -220.875  838.024
29.1743  -220.775  837.81
28.5024  -220.675  837.596
27.8305  -220.574  837.382
27.1586  -220.474  837.169
26.6136  -220.647  837.015
26.0687  -220.82  836.862
25.5238  -220.992  836.709
24.9789  -221.165  836.556
24.4339  -221.338  836.403
23.889  -221.511  836.25
23.3441  -221.683  836.096
22.7992  -221.856  835.943
22.2542  -222.029  835.79
21.7093  -222.201  835.637
21.1644  -222.374  835.484
20.6195  -222.547  835.331
20.0745  -222.72  835.178
19.5296  -222.892  835.025
18.9847  -223.065  834.871
18.4398  -223.238  834.718
17.8949  -223.41  834.565
17.3499  -223.583  834.412
16.805  -223.756  834.259
16.2601  -223.929  834.106
15.7152  -224.101  833.952
15.1702  -224.274  833.799
14.6253  -224.447  833.646
14.0804  -224.619  833.493
13.5355  -224.792  833.34
12.9905  -224.965  833.187
12.4456  -225.138  833.034
11.9007  -225.31  832.88
11.3558  -225.483  832.727
10.8108  -225.656  832.574
10.2659  -225.828  832.421
9.721  -226.001  832.268
9.17608  -226.174  832.115
8.63115  -226.347  831.962
8.08623  -226.519  831.808
7.54131  -226.692  831.655
6.99638  -226.865  831.502
6.45146  -227.037  831.349
5.90654  -227.21  831.196
5.36161  -227.383  831.043
4.81669  -227.556  830.889
4.27177  -227.728  830.736
3.72684  -227.901  830.583
3.18192  -228.074  830.43
2.637  -228.246  830.277
2.09207  -228.419  830.124
1.54715  -228.592  829.971
1.00222  -228.765  829.817
0.457301  -228.937  829.664
-0.0876222  -229.11  829.511
-0.632546  -229.283  829.358
-1.17747  -229.455  829.205
-1.72239  -229.628  829.052
-2.26732  -229.801  828.898
-2.81224  -229.974  828.745
-3.35716  -230.146  828.592
-3.90209  -230.319  828.439
-4.44701  -230.492  828.286
-4.99193  -230.664  828.133
-5.53686  -230.837  827.98
-6.08178  -231.01  827.826
-6.6267  -231.183  827.673
-7.17163  -231.355  827.52
-7.71655  -231.528  827.367
-8.42101  -232.027  827.191
-9.12547  -232.527  827.015
-9.82993  -233.026  826.839
-10.5344  -233.526  826.663
-10.989  -233.975  826.56
-11.4436  -234.425  826.457
-11.8982  -234.875  826.353
-12.3528  -235.324  826.25
-12.8078  -235.813  826.15
-13.2276  -236.682  826.09
-13.6474  -237.552  826.031
-14.0303  -238.411  825.983
-14.4133  -239.27  825.934
-14.7962  -240.13  825.885
-15.1792  -240.989  825.837
-15.1726  -241.579  825.886
-15.166  -242.169  825.935
-15.1594  -242.759  825.984
-15.1528  -243.349  826.033
-15.1462  -243.939  826.083
-15.1396  -244.529  826.132
-15.133  -245.119  826.181
-15.1264  -245.708  826.23
-15.0659  -246.655  826.324
-15.0055  -247.602  826.418
-14.9503  -248.233  826.486
-14.8951  -248.863  826.553
-14.8399  -249.494  826.62
-14.7847  -250.124  826.688
-14.5178  -250.874  826.829
-14.2509  -251.623  826.971
-13.9839  -252.373  827.113
-13.717  -253.122  827.254
-13.4501  -253.872  827.396
-13.1832  -254.621  827.538
-12.9163  -255.371  827.679
-12.6493  -256.12  827.821
-12.3898  -256.621  827.94
-12.1302  -257.121  828.06
-11.8707  -257.621  828.179
-11.6111  -258.121  828.299
-11.3516  -258.621  828.418
-11.092  -259.121  828.538
-10.8324  -259.621  828.657
-10.5729  -260.121  828.777
-10.1487  -260.771  828.959
-9.7246  -261.42  829.141
-9.30046  -262.07  829.322
-8.87632  -262.72  829.504
-8.36761  -263.16  829.695
-7.85891  -263.6  829.886
-7.35021  -264.041  830.077
-6.84151  -264.481  830.268
-6.03925  -264.914  830.549
-5.23699  -265.347  830.829
-4.43473  -265.78  831.11
-3.63247  -266.213  831.39
-2.83021  -266.646  831.67
-2.02795  -267.079  831.951
-1.22569  -267.512  832.231
-0.423433  -267.945  832.512
0.313168  -268.119  832.751
1.04977  -268.293  832.991
1.78637  -268.467  833.23
2.52297  -268.642  833.47
3.25957  -268.816  833.71
3.99617  -268.99  833.949
4.73277  -269.164  834.189
5.46937  -269.338  834.428
6.20598  -269.512  834.668
6.94258  -269.686  834.907
7.67918  -269.86  835.147
8.41578  -270.034  835.387
9.15238  -270.208  835.626
9.88898  -270.382  835.866
10.6256  -270.556  836.105
11.3622  -270.73  836.345
12.0313  -270.814  836.557
12.7005  -270.898  836.768
13.2736  -270.882  836.943
13.8467  -270.865  837.117
14.3773  -270.745  837.27
14.9078  -270.626  837.423
15.4383  -270.507  837.576
15.9688  -270.387  837.729
16.4993  -270.268  837.882
17.0299  -270.149  838.035
17.5604  -270.03  838.188
18.0909  -269.91  838.341
18.5919  -269.786  838.484
19.0929  -269.661  838.628
19.5939  -269.536  838.772
20.0949  -269.411  838.915
20.5959  -269.286  839.059
21.0969  -269.162  839.202
21.5979  -269.037  839.346
22.0989  -268.912  839.489
22.6  -268.787  839.633
23.101  -268.663  839.776
23.602  -268.538  839.92
24.103  -268.413  840.063
24.604  -268.288  840.207
25.105  -268.163  840.35
25.606  -268.039  840.494
26.107  -267.914  840.637
26.9579  -267.675  840.879
27.8088  -267.437  841.121
28.6597  -267.199  841.362
29.5106  -266.961  841.604
30.2253  -266.633  841.797
30.94  -266.305  841.99
31.6546  -265.977  842.182
32.3693  -265.649  842.375
33.2084  -265.199  842.596
33.8094  -264.837  842.751
34.4105  -264.475  842.907
35.0115  -264.114  843.062
35.6125  -263.752  843.217
36.353  -263.213  843.401
36.7793  -262.89  843.506
37.2057  -262.566  843.61
37.632  -262.243  843.715
38.0584  -261.92  843.82
38.4847  -261.596  843.925
38.9111  -261.273  844.03
39.3374  -260.95  844.134
39.7638  -260.626  844.239
40.3702  -260.047  844.379
40.9767  -259.469  844.518
41.3331  -259.05  844.594
41.6895  -258.632  844.67
42.0459  -258.214  844.746
42.4023  -257.796  844.821
42.7471  -257.344  844.891
43.0919  -256.892  844.96
43.4366  -256.44  845.03
43.7814  -255.988  845.099
44.1262  -255.536  845.169
44.4709  -255.083  845.238
44.8157  -254.631  845.308
45.1605  -254.179  845.377
45.5778  -253.302  845.435
45.9951  -252.425  845.493
46.4125  -251.548  845.551
46.8298  -250.67  845.608
47.0693  -250.118  845.638
47.3088  -249.566  845.667
47.5484  -249.014  845.696
47.7879  -248.462  845.725
48.0274  -247.91  845.755
48.2669  -247.358  845.784
48.5064  -246.806  845.813
48.7459  -246.254  845.843
48.8638  -245.53  845.821
48.9818  -244.807  845.799
s
60.7497  -239.351  822.551
61.1199  -238.43  822.577
61.2397  -237.874  822.572
61.3594  -237.318  822.567
61.4792  -236.762  822.562
61.5989  -236.206  822.557
61.7188  -235.647  822.552
61.8387  -235.088  822.547
61.9452  -234.503  822.538
62.0518  -233.919  822.529
62.1584  -233.335  822.519
62.2649  -232.751  822.51
62.3715  -232.167  822.501
62.4781  -231.583  822.492
62.5846  -230.999  822.483
62.6912  -230.415  822.474
62.777  -229.79  822.458
62.8628  -229.166  822.443
62.9485  -228.541  822.427
63.0343  -227.916  822.412
63.1201  -227.292  822.396
63.2059  -226.667  822.381
63.2916  -226.042  822.366
63.3774  -225.418  822.35
63.3938  -224.486  822.305
63.4102  -223.554  822.26
63.4267  -222.622  822.214
63.4431  -221.689  822.169
63.3398  -220.915  822.108
63.2365  -220.14  822.047
63.1332  -219.365  821.986
63.0299  -218.59  821.925
62.9266  -217.815  821.864
62.8234  -217.04  821.803
62.7201  -216.265  821.742
62.6168  -215.491  821.681
62.5817  -215.354  821.667
62.1095  -215.123  821.56
61.6374  -214.891  821.454
61.1653  -214.66  821.347
60.6931  -214.428  821.241
60.221  -214.196  821.134
59.7488  -213.965  821.028
59.2767  -213.733  820.921
58.8045  -213.502  820.815
58.3324  -213.27  820.708
57.8602  -213.039  820.602
57.3881  -212.807  820.495
56.9159  -212.575  820.389
56.4438  -212.344  820.283
55.9717  -212.112  820.176
55.4995  -211.881  820.07
55.0274  -211.649  819.963
54.2353  -211.629  819.804
53.4432  -211.608  819.644
52.6511  -211.587  819.485
51.859  -211.567  819.326
51.0669  -211.546  819.166
50.2748  -211.526  819.007
49.4827  -211.505  818.847
48.6906  -211.484  818.688
47.8986  -211.464  818.529
47.1065  -211.443  818.369
46.3144  -211.423  818.21
45.5223  -211.402  818.05
44.7302  -211.382  817.891
43.9381  -211.361  817.732
43.146  -211.34  817.572
42.3539  -211.32  817.413
41.5618  -211.299  817.253
40.7697  -211.279  817.094
39.9776  -211.258  816.934
39.1856  -211.237  816.775
38.3935  -211.217  816.616
37.6014  -211.196  816.456
36.8093  -211.176  816.297
36.0172  -211.155  816.137
35.2251  -211.135  815.978
34.433  -211.114  815.819
33.6409  -211.093  815.659
32.8488  -211.073  815.5
32.0567  -211.052  815.34
31.2646  -211.032  815.181
30.4726  -211.011  815.022
29.6805  -210.99  814.862
29.0588  -211.353  814.757
28.4371  -211.715  814.651
27.8154  -212.078  814.546
27.1937  -212.44  814.441
26.572  -212.803  814.335
25.9503  -213.165  814.23
25.3286  -213.528  814.125
24.707  -213.89  814.019
24.0853  -214.253  813.914
23.4636  -214.615  813.809
22.8419  -214.978  813.703
22.2202  -215.34  813.598
21.5985  -215.703  813.492
20.9768  -216.065  813.387
20.3551  -216.428  813.282
19.7334  -216.79  813.176
19.1118  -217.153  813.071
18.4901  -217.515  812.966
17.8684  -217.878  812.86
17.2467  -218.24  812.755
16.625  -218.603  812.649
16.0033  -218.965  812.544
15.3816  -219.327  812.439
14.7599  -219.69  812.333
14.1382  -220.052  812.228
13.5166  -220.415  812.123
12.8949  -220.777  812.017
12.2732  -221.14  811.912
11.6515  -221.502  811.807
11.0298  -221.865  811.701
10.4081  -222.227  811.596
9.78642  -222.59  811.49
9.16474  -222.952  811.385
8.54305  -223.315  811.28
7.92136  -223.677  811.174
7.29967  -224.04  811.069
6.67798  -224.402  810.964
6.05629  -224.765  810.858
5.4346  -225.127  810.753
4.81292  -225.49  810.647
4.19123  -225.852  810.542
3.56954  -226.215  810.437
2.94785  -226.577  810.331
2.32616  -226.94  810.226
1.70447  -227.302  810.121
1.08278  -227.665  810.015
0.461095  -228.027  809.91
-0.160594  -228.39  809.804
-0.782282  -228.752  809.699
-1.40397  -229.114  809.594
-2.02566  -229.477  809.488
-2.64735  -229.839  809.383
-3.26904  -230.202  809.278
-3.89073  -230.564  809.172
-4.51241  -230.927  809.067
-5.1341  -231.289  808.961
-5.75579  -231.652  808.856
-6.37748  -232.014  808.751
-6.99917  -232.377  808.645
-7.62086  -232.739  808.54
-8.24255  -233.102  808.435
-8.86423  -233.464  808.329
-9.48592  -233.827  808.224
-10.1076  -234.189  808.118
-10.6776  -234.653  808.029
-11.2475  -235.117  807.939
-11.8175  -235.581  807.849
-12.3875  -236.045  807.76
-12.7877  -236.636  807.71
-13.188  -237.226  807.661
-13.5882  -237.816  807.612
-13.9885  -238.406  807.563
-14.3088  -238.956  807.527
-14.629  -239.505  807.492
-14.9996  -240.348  807.462
-15.3701  -241.191  807.432
-15.5057  -241.807  807.437
-15.6412  -242.422  807.442
-15.7768  -243.038  807.447
-15.9124  -243.654  807.452
-16.0479  -244.27  807.457
-16.1835  -244.886  807.462
-16.319  -245.501  807.467
-16.4546  -246.117  807.472
-16.3607  -246.702  807.521
-16.1912  -247.459  807.594
-16.0217  -248.216  807.668
-15.8819  -248.689  807.72
-15.6318  -249.396  807.807
-15.3817  -250.103  807.894
-15.1315  -250.81  807.981
-14.8814  -251.517  808.068
-14.6577  -252.039  808.14
-14.434  -252.562  808.212
-14.2103  -253.084  808.284
-13.9866  -253.607  808.356
-13.7628  -254.13  808.427
-13.5391  -254.652  808.499
-13.3154  -255.175  808.571
-13.0917  -255.697  808.643
-12.6856  -256.374  808.76
-12.2794  -257.051  808.876
-11.8733  -257.728  808.993
-11.4671  -258.405  809.109
-11.0033  -259.076  809.237
-10.5394  -259.746  809.365
-10.0963  -260.039  809.469
-9.65321  -260.332  809.572
-9.21012  -260.625  809.676
-8.76702  -260.918  809.78
-8.32393  -261.211  809.884
-7.88083  -261.504  809.988
-7.43774  -261.797  810.092
-6.99464  -262.09  810.195
-6.55155  -262.383  810.299
-6.10845  -262.676  810.403
-5.66535  -262.969  810.507
-5.22226  -263.262  810.611
-4.77916  -263.555  810.715
-4.33607  -263.848  810.818
-3.89297  -264.141  810.922
-3.44988  -264.434  811.026
-2.87428  -264.593  811.15
-2.29868  -264.752  811.273
-1.72308  -264.911  811.396
-1.14748  -265.071  811.52
-0.571875  -265.23  811.643
0.00372571  -265.389  811.766
0.579326  -265.549  811.89
1.15493  -265.708  812.013
1.73053  -265.867  812.136
2.30613  -266.026  812.26
2.88173  -266.186  812.383
3.45733  -266.345  812.507
4.03293  -266.504  812.63
4.60853  -266.663  812.753
5.18413  -266.823  812.877
5.75973  -266.982  813
6.53537  -267.196  813.166
7.31101  -267.411  813.332
8.08665  -267.625  813.499
8.86229  -267.839  813.665
9.63793  -268.054  813.831
10.4136  -268.268  813.997
11.1892  -268.482  814.164
11.9649  -268.697  814.33
12.4812  -268.732  814.435
12.9975  -268.766  814.54
13.5138  -268.801  814.645
14.0301  -268.836  814.75
14.5464  -268.871  814.855
15.0627  -268.906  814.96
15.5791  -268.941  815.065
16.0954  -268.976  815.17
16.6993  -268.901  815.287
17.3032  -268.827  815.404
18.165  -268.678  815.568
19.0268  -268.529  815.733
19.8886  -268.38  815.897
20.7504  -268.231  816.062
21.6122  -268.083  816.226
22.474  -267.934  816.391
23.3358  -267.785  816.555
24.1976  -267.636  816.72
25.0594  -267.487  816.884
25.9212  -267.338  817.049
26.783  -267.19  817.213
27.6448  -267.041  817.378
28.5066  -266.892  817.542
29.3684  -266.743  817.707
30.2302  -266.594  817.871
31.092  -266.445  818.036
31.7908  -266.232  818.164
32.4896  -266.018  818.293
33.1884  -265.805  818.421
33.8872  -265.592  818.55
34.586  -265.378  818.679
35.2849  -265.165  818.807
35.9837  -264.951  818.936
36.6825  -264.738  819.064
37.2547  -264.535  819.168
37.827  -264.333  819.272
38.3993  -264.13  819.376
38.9715  -263.928  819.48
39.5438  -263.726  819.583
40.116  -263.523  819.687
40.6883  -263.321  819.791
41.2606  -263.118  819.895
41.4875  -262.984  819.933
42.2076  -262.552  820.055
42.9276  -262.121  820.176
43.6477  -261.689  820.298
44.3678  -261.258  820.419
44.9417  -260.854  820.513
45.5156  -260.45  820.606
46.0896  -260.047  820.7
46.6635  -259.643  820.794
47.1517  -259.269  820.872
47.6398  -258.895  820.95
48.128  -258.521  821.028
48.6162  -258.147  821.106
49.1026  -257.729  821.181
49.5889  -257.311  821.257
50.0753  -256.893  821.332
50.5617  -256.475  821.408
51.1682  -255.893  821.499
51.5179  -255.525  821.549
51.9145  -255.083  821.606
52.3111  -254.641  821.662
52.8576  -253.984  821.737
53.2515  -253.468  821.789
53.6453  -252.951  821.84
54.0392  -252.435  821.892
54.433  -251.919  821.944
54.8269  -251.403  821.996
55.2208  -250.887  822.048
55.6146  -250.371  822.1
56.0085  -249.855  822.151
56.4467  -249.047  822.197
56.8848  -248.239  822.242
57.323  -247.431  822.288
57.7612  -246.623  822.333
57.9959  -246.06  822.351
58.2306  -245.496  822.368
58.4653  -244.933  822.386
58.7  -244.369  822.403
58.9347  -243.806  822.421
59.1694  -243.243  822.438
59.4041  -242.679  822.456
59.6388  -242.116  822.474
60.0091  -241.194  822.5
60.3794  -240.273  822.525
s
69.7048  -239.189  798.528
69.8392  -238.305  798.518
69.9737  -237.42  798.509
70.1081  -236.536  798.5
70.2426  -235.652  798.49
70.3771  -234.768  798.481
70.5115  -233.884  798.471
70.646  -233  798.462
70.7804  -232.116  798.453
70.9149  -231.232  798.443
71.0493  -230.348  798.434
71.1838  -229.464  798.424
71.3182  -228.579  798.415
71.4527  -227.695  798.406
71.5871  -226.811  798.396
71.7216  -225.927  798.387
71.856  -225.043  798.377
71.9905  -224.159  798.368
72.125  -223.275  798.359
72.2594  -222.391  798.349
72.3939  -221.507  798.34
72.5283  -220.623  798.33
72.6628  -219.739  798.321
72.7972  -218.854  798.311
72.9317  -217.97  798.302
73.0661  -217.086  798.293
73.2006  -216.202  798.283
73.335  -215.318  798.274
73.4695  -214.434  798.264
73.604  -213.55  798.255
73.7384  -212.666  798.246
73.7074  -212.019  798.226
73.6763  -211.371  798.206
73.6453  -210.724  798.187
73.6143  -210.077  798.167
73.5833  -209.43  798.148
73.5522  -208.782  798.128
73.5212  -208.135  798.109
73.4902  -207.488  798.089
72.6482  -207.115  797.997
71.8062  -206.743  797.905
70.9642  -206.371  797.813
70.1222  -205.999  797.722
69.2803  -205.626  797.63
68.4383  -205.254  797.538
67.5963  -204.882  797.446
66.7543  -204.509  797.354
65.8597  -204.797  797.274
64.965  -205.086  797.194
64.0704  -205.374  797.113
63.1757  -205.662  797.033
62.281  -205.95  796.953
61.3864  -206.238  796.873
60.4917  -206.526  796.793
59.5971  -206.814  796.712
58.7024  -207.102  796.632
57.8078  -207.39  796.552
56.9131  -207.678  796.472
56.0184  -207.966  796.392
55.1238  -208.254  796.311
54.2291  -208.542  796.231
53.3345  -208.831  796.151
52.4398  -209.119  796.071
51.5452  -209.407  795.991
50.6505  -209.695  795.911
49.7558  -209.983  795.83
48.8612  -210.271  795.75
47.9665  -210.559  795.67
47.0719  -210.847  795.59
46.1772  -211.135  795.51
45.2826  -211.423  795.429
44.3879  -211.711  795.349
43.4932  -211.999  795.269
42.5986  -212.287  795.189
41.7039  -212.575  795.109
40.8093  -212.864  795.028
39.9146  -213.152  794.948
39.02  -213.44  794.868
38.1253  -213.728  794.788
37.3827  -214.064  794.724
36.6401  -214.399  794.66
35.8975  -214.735  794.595
35.1549  -215.071  794.531
34.4124  -215.407  794.467
33.6698  -215.743  794.403
32.9272  -216.079  794.339
32.1846  -216.415  794.275
31.442  -216.75  794.211
30.6994  -217.086  794.147
29.9568  -217.422  794.083
29.2142  -217.758  794.019
28.4716  -218.094  793.954
27.7291  -218.43  793.89
26.9865  -218.765  793.826
26.2439  -219.101  793.762
25.5013  -219.437  793.698
24.7587  -219.773  793.634
24.0161  -220.109  793.57
23.2735  -220.445  793.506
22.5309  -220.78  793.442
21.7884  -221.116  793.378
21.0458  -221.452  793.313
20.3032  -221.788  793.249
19.5606  -222.124  793.185
18.818  -222.46  793.121
18.0754  -222.796  793.057
17.3328  -223.131  792.993
16.5902  -223.467  792.929
15.8477  -223.803  792.865
15.1051  -224.139  792.801
14.3625  -224.475  792.737
13.6199  -224.811  792.672
12.8773  -225.146  792.608
12.1347  -225.482  792.544
11.3921  -225.818  792.48
10.6495  -226.154  792.416
9.90695  -226.49  792.352
9.16436  -226.826  792.288
8.42178  -227.162  792.224
7.67919  -227.497  792.16
6.9366  -227.833  792.096
6.19401  -228.169  792.032
5.45143  -228.505  791.967
4.70884  -228.841  791.903
3.96625  -229.177  791.839
3.22366  -229.512  791.775
2.48107  -229.848  791.711
1.73849  -230.184  791.647
0.995898  -230.52  791.583
0.25331  -230.856  791.519
-0.489278  -231.192  791.455
-1.23187  -231.528  791.391
-1.97445  -231.863  791.327
-2.71704  -232.199  791.262
-3.45963  -232.535  791.198
-4.20222  -232.871  791.134
-4.94481  -233.207  791.07
-5.68739  -233.543  791.006
-6.42998  -233.878  790.942
-7.17257  -234.214  790.878
-7.91516  -234.55  790.814
-8.65775  -234.886  790.75
-9.40033  -235.222  790.686
-10.0672  -235.755  790.634
-10.734  -236.288  790.582
-11.4008  -236.821  790.531
-12.0677  -237.354  790.479
-12.6415  -238.029  790.44
-13.2153  -238.705  790.401
-13.7891  -239.38  790.362
-14.3629  -240.055  790.323
-14.5156  -240.788  790.327
-14.6683  -241.521  790.331
-14.821  -242.255  790.335
-14.9737  -242.988  790.338
-15.1263  -243.721  790.342
-15.279  -244.454  790.346
-15.4317  -245.187  790.35
-15.5844  -245.92  790.353
-15.5423  -246.699  790.377
-15.5001  -247.478  790.401
-15.4418  -248.12  790.424
-15.2835  -248.879  790.458
-15.1251  -249.638  790.493
-14.8253  -250.265  790.539
-14.5256  -250.892  790.584
-14.2259  -251.518  790.629
-13.9261  -252.145  790.675
-13.6264  -252.772  790.72
-13.3266  -253.398  790.765
-13.0269  -254.025  790.811
-12.7271  -254.652  790.856
-12.6984  -254.712  790.86
-12.2365  -255.401  790.923
-11.7746  -256.091  790.986
-11.0163  -256.623  791.074
-10.2581  -257.155  791.161
-9.49981  -257.686  791.249
-8.74154  -258.218  791.337
-7.98327  -258.75  791.425
-7.22501  -259.281  791.513
-6.46674  -259.813  791.6
-5.70848  -260.345  791.688
-5.24926  -260.585  791.739
-4.79004  -260.824  791.79
-4.33082  -261.064  791.841
-3.8716  -261.304  791.892
-3.34621  -261.427  791.947
-2.82082  -261.55  792.001
-2.29543  -261.673  792.056
-1.77004  -261.796  792.111
-1.24464  -261.919  792.165
-0.719252  -262.042  792.22
-0.193861  -262.165  792.274
0.331531  -262.288  792.329
1.13437  -262.475  792.412
1.9372  -262.661  792.495
2.74004  -262.848  792.579
3.54287  -263.034  792.662
4.34571  -263.221  792.745
5.14854  -263.407  792.829
5.95138  -263.594  792.912
6.75421  -263.78  792.995
7.47986  -263.922  793.07
8.20551  -264.064  793.145
8.93115  -264.206  793.219
9.6568  -264.348  793.294
10.3824  -264.49  793.369
11.1081  -264.632  793.443
11.8337  -264.774  793.518
12.5594  -264.916  793.592
13.285  -265.058  793.667
14.0107  -265.2  793.742
14.7363  -265.341  793.816
15.462  -265.483  793.891
16.1876  -265.625  793.966
16.9133  -265.767  794.04
17.6389  -265.909  794.115
18.3646  -266.051  794.189
19.1737  -266.143  794.271
19.9828  -266.234  794.352
20.6466  -266.295  794.419
21.3104  -266.356  794.486
21.9059  -266.348  794.544
22.5015  -266.341  794.602
23.097  -266.333  794.66
23.6925  -266.326  794.718
24.5409  -266.24  794.799
25.3893  -266.154  794.88
26.2378  -266.068  794.96
27.0862  -265.982  795.041
27.9346  -265.896  795.122
28.783  -265.81  795.203
29.6314  -265.724  795.284
30.4798  -265.638  795.365
30.9916  -265.584  795.413
31.5033  -265.53  795.462
32.0151  -265.476  795.511
32.5268  -265.422  795.559
33.328  -265.323  795.635
34.1293  -265.224  795.711
34.9305  -265.125  795.787
35.7318  -265.026  795.863
36.6991  -264.792  795.952
37.297  -264.646  796.006
37.8948  -264.499  796.061
38.4927  -264.352  796.116
39.0905  -264.206  796.171
39.6884  -264.059  796.225
40.2862  -263.912  796.28
40.8841  -263.766  796.335
41.482  -263.619  796.39
42.2041  -263.382  796.454
42.9263  -263.146  796.519
43.6485  -262.909  796.584
44.3707  -262.672  796.648
45.0929  -262.436  796.713
45.8151  -262.199  796.777
46.5373  -261.962  796.842
47.2595  -261.726  796.907
47.8642  -261.465  796.959
48.4689  -261.204  797.012
49.0736  -260.943  797.064
49.6783  -260.682  797.117
50.2829  -260.421  797.169
50.8876  -260.16  797.222
51.4923  -259.899  797.274
52.097  -259.638  797.327
52.8883  -259.28  797.395
53.6795  -258.922  797.463
54.1399  -258.66  797.502
54.6003  -258.398  797.54
55.0607  -258.136  797.578
55.5211  -257.874  797.617
55.9816  -257.611  797.655
56.442  -257.349  797.694
56.9024  -257.087  797.732
57.3628  -256.825  797.77
58.1207  -256.238  797.829
58.8785  -255.65  797.889
59.6364  -255.063  797.948
60.3942  -254.476  798.007
60.9586  -253.932  798.048
61.523  -253.388  798.09
62.0873  -252.844  798.131
62.6517  -252.3  798.172
63.2613  -251.711  798.217
63.8708  -251.122  798.262
64.4521  -250.497  798.302
64.8679  -250.002  798.331
65.2837  -249.508  798.359
65.6996  -249.013  798.387
66.1154  -248.519  798.415
66.415  -248.097  798.433
66.7386  -247.542  798.451
67.0623  -246.988  798.468
67.4701  -246.136  798.487
67.7021  -245.647  798.497
68.0539  -244.72  798.508
68.4057  -243.794  798.518
68.6632  -243.085  798.525
68.9208  -242.375  798.532
69.1783  -241.666  798.54
69.4359  -240.957  798.547
69.5703  -240.073  798.537
s
78.1858  -230.463  774.188
78.2842  -229.873  774.188
78.3825  -229.283  774.188
78.4809  -228.693  774.188
78.5793  -228.103  774.188
78.6776  -227.513  774.188
78.776  -226.924  774.188
78.8744  -226.334  774.188
78.9727  -225.744  774.188
79.0711  -225.154  774.188
79.1695  -224.564  774.188
79.2678  -223.974  774.188
79.3662  -223.384  774.188
79.4646  -222.794  774.188
79.5629  -222.204  774.188
79.6613  -221.614  774.188
79.7597  -221.025  774.188
79.858  -220.435  774.188
79.9564  -219.845  774.188
80.0547  -219.255  774.188
80.1531  -218.665  774.188
80.2515  -218.075  774.188
80.3498  -217.485  774.188
80.4482  -216.895  774.188
80.5466  -216.305  774.188
80.6449  -215.715  774.188
80.7433  -215.126  774.188
80.8417  -214.536  774.188
80.94  -213.946  774.188
81.0384  -213.356  774.188
81.1368  -212.766  774.188
81.2351  -212.176  774.188
81.3335  -211.586  774.188
81.4319  -210.996  774.188
81.5302  -210.406  774.188
81.6286  -209.816  774.188
81.727  -209.227  774.188
81.8253  -208.637  774.188
81.9237  -208.047  774.188
82.0221  -207.457  774.188
82.1204  -206.867  774.188
82.2188  -206.277  774.188
82.3172  -205.687  774.188
82.4155  -205.097  774.188
82.339  -204.162  774.188
82.2626  -203.226  774.188
82.1848  -202.685  774.188
82.1071  -202.144  774.188
82.0293  -201.603  774.188
81.9516  -201.061  774.188
81.8738  -200.52  774.188
81.7961  -199.979  774.188
81.7183  -199.438  774.188
81.6406  -198.897  774.188
81.1813  -198.639  774.188
80.7219  -198.38  774.188
80.2626  -198.122  774.188
79.8033  -197.863  774.188
79.344  -197.605  774.188
78.8847  -197.346  774.188
78.4254  -197.088  774.188
77.9661  -196.83  774.188
77.5068  -196.571  774.188
77.0475  -196.313  774.188
76.5882  -196.054  774.188
76.1288  -195.796  774.188
75.6695  -195.537  774.188
75.2102  -195.279  774.188
74.7509  -195.02  774.188
74.2916  -194.762  774.188
73.3512  -194.855  774.188
72.4108  -194.947  774.188
71.4704  -195.04  774.188
70.5299  -195.132  774.188
69.5895  -195.225  774.188
68.6491  -195.318  774.188
67.7087  -195.41  774.188
66.7683  -195.503  774.188
65.8279  -195.595  774.188
64.8874  -195.688  774.188
63.947  -195.781  774.188
63.0066  -195.873  774.188
62.0662  -195.966  774.188
61.1258  -196.058  774.188
60.1853  -196.151  774.188
59.2449  -196.244  774.188
58.7309  -196.544  774.188
58.2168  -196.845  774.188
57.7028  -197.146  774.188
57.1888  -197.447  774.188
56.6747  -197.748  774.188
56.1607  -198.048  774.188
55.6466  -198.349  774.188
55.1326  -198.65  774.188
54.6185  -198.951  774.188
54.1045  -199.252  774.188
53.5904  -199.552  774.188
53.0764  -199.853  774.188
52.5624  -200.154  774.188
52.0483  -200.455  774.188
51.5343  -200.756  774.188
51.0202  -201.057  774.188
50.5062  -201.357  774.188
49.9921  -201.658  774.188
49.4781  -201.959  774.188
48.9641  -202.26  774.188
48.45  -202.561  774.188
47.936  -202.861  774.188
47.4219  -203.162  774.188
46.9079  -203.463  774.188
46.3938  -203.764  774.188
45.8798  -204.065  774.188
45.3658  -204.365  774.188
44.8517  -204.666  774.188
44.3377  -204.967  774.188
43.8236  -205.268  774.188
43.3096  -205.569  774.188
42.7955  -205.87  774.188
42.2815  -206.17  774.188
41.7675  -206.471  774.188
41.2534  -206.772  774.188
40.7394  -207.073  774.188
40.2253  -207.374  774.188
39.7113  -207.674  774.188
39.1972  -207.975  774.188
38.6832  -208.276  774.188
38.1692  -208.577  774.188
37.6551  -208.878  774.188
37.1411  -209.178  774.188
36.627  -209.479  774.188
36.113  -209.78  774.188
35.5989  -210.081  774.188
35.0849  -210.382  774.188
34.5709  -210.682  774.188
34.0568  -210.983  774.188
33.5428  -211.284  774.188
33.0287  -211.585  774.188
32.5147  -211.886  774.188
32.0006  -212.187  774.188
31.4866  -212.487  774.188
30.9726  -212.788  774.188
30.4585  -213.089  774.188
29.9445  -213.39  774.188
29.4304  -213.691  774.188
28.9164  -213.991  774.188
28.4023  -214.292  774.188
27.8883  -214.593  774.188
27.3743  -214.894  774.188
26.8602  -215.195  774.188
26.3462  -215.495  774.188
25.8321  -215.796  774.188
25.3181  -216.097  774.188
24.804  -216.398  774.188
24.29  -216.699  774.188
23.776  -217  774.188
23.2619  -217.3  774.188
22.7479  -217.601  774.188
22.2338  -217.902  774.188
21.7198  -218.203  774.188
21.2057  -218.504  774.188
20.6917  -218.804  774.188
20.1777  -219.105  774.188
19.6636  -219.406  774.188
19.1496  -219.707  774.188
18.6355  -220.008  774.188
18.1215  -220.308  774.188
17.6074  -220.609  774.188
17.0934  -220.91  774.188
16.5794  -221.211  774.188
16.0653  -221.512  774.188
15.5513  -221.812  774.188
15.0372  -222.113  774.188
14.5232  -222.414  774.188
14.0091  -222.715  774.188
13.4951  -223.016  774.188
12.9811  -223.317  774.188
12.467  -223.617  774.188
11.953  -223.918  774.188
11.4389  -224.219  774.188
10.9249  -224.52  774.188
10.4108  -224.821  774.188
9.89679  -225.121  774.188
9.38275  -225.422  774.188
8.86871  -225.723  774.188
8.35466  -226.024  774.188
7.84062  -226.325  774.188
7.32658  -226.625  774.188
6.81254  -226.926  774.188
6.29849  -227.227  774.188
5.78445  -227.528  774.188
5.27041  -227.829  774.188
4.75636  -228.129  774.188
4.24232  -228.43  774.188
3.72828  -228.731  774.188
3.21423  -229.032  774.188
2.70019  -229.333  774.188
2.18615  -229.634  774.188
1.67211  -229.934  774.188
1.15806  -230.235  774.188
0.644019  -230.536  774.188
0.129976  -230.837  774.188
-0.384067  -231.138  774.188
-0.89811  -231.438  774.188
-1.41215  -231.739  774.188
-1.9262  -232.04  774.188
-2.44024  -232.341  774.188
-2.95428  -232.642  774.188
-3.46832  -232.942  774.188
-3.98237  -233.243  774.188
-4.49641  -233.544  774.188
-5.01045  -233.845  774.188
-5.5245  -234.146  774.188
-6.03854  -234.447  774.188
-6.55258  -234.747  774.188
-7.17843  -235.261  774.188
-7.80428  -235.774  774.188
-8.43012  -236.287  774.188
-9.05597  -236.801  774.188
-9.62795  -237.301  774.188
-10.1999  -237.802  774.188
-10.7719  -238.302  774.188
-11.3439  -238.803  774.188
-11.5566  -239.416  774.188
-11.7694  -240.03  774.188
-11.9822  -240.643  774.188
-12.1949  -241.257  774.188
-12.3657  -241.899  774.188
-12.5364  -242.541  774.188
-12.7071  -243.183  774.188
-12.8779  -243.825  774.188
-13.0078  -244.561  774.188
-13.0191  -245.352  774.188
-13.0303  -246.143  774.188
-12.8987  -246.835  774.188
-12.7016  -247.591  774.188
-12.5044  -248.347  774.188
-12.1239  -249.073  774.188
-11.7433  -249.8  774.188
-11.3628  -250.526  774.188
-10.9823  -251.253  774.188
-10.4571  -251.958  774.188
-9.9319  -252.664  774.188
-9.18182  -253.324  774.188
-8.43174  -253.985  774.188
-7.68166  -254.645  774.188
-6.93158  -255.305  774.188
-6.36162  -255.615  774.188
-5.79165  -255.924  774.188
-5.22169  -256.233  774.188
-4.65173  -256.542  774.188
-3.78564  -256.772  774.188
-2.91955  -257.002  774.188
-2.05347  -257.232  774.188
-1.18738  -257.462  774.188
-0.321291  -257.692  774.188
0.544797  -257.922  774.188
1.41089  -258.152  774.188
2.27697  -258.383  774.188
3.14306  -258.613  774.188
4.00915  -258.843  774.188
4.87524  -259.073  774.188
5.74133  -259.303  774.188
6.60741  -259.533  774.188
7.4735  -259.763  774.188
8.33959  -259.993  774.188
9.20568  -260.223  774.188
10.0429  -260.392  774.188
10.8802  -260.56  774.188
11.7174  -260.729  774.188
12.5546  -260.898  774.188
13.3919  -261.066  774.188
14.2291  -261.235  774.188
15.0664  -261.403  774.188
15.9036  -261.572  774.188
16.6016  -261.685  774.188
17.2997  -261.797  774.188
17.9977  -261.91  774.188
18.6957  -262.023  774.188
19.3937  -262.135  774.188
20.0917  -262.248  774.188
20.7898  -262.361  774.188
21.4878  -262.473  774.188
22.2533  -262.577  774.188
23.0188  -262.68  774.188
23.7843  -262.784  774.188
24.5498  -262.888  774.188
25.3153  -262.991  774.188
26.0808  -263.095  774.188
26.8463  -263.199  774.188
27.6118  -263.302  774.188
28.1151  -263.358  774.188
28.6184  -263.413  774.188
29.1217  -263.469  774.188
29.625  -263.524  774.188
30.5615  -263.602  774.188
31.4979  -263.68  774.188
32.0509  -263.716  774.188
32.604  -263.752  774.188
33.157  -263.788  774.188
33.71  -263.824  774.188
34.263  -263.86  774.188
34.8161  -263.896  774.188
35.3691  -263.931  774.188
35.9221  -263.967  774.188
36.6187  -264.005  774.188
37.3153  -264.044  774.188
38.0119  -264.082  774.188
38.7085  -264.12  774.188
39.4051  -264.158  774.188
40.1018  -264.196  774.188
40.7984  -264.235  774.188
41.495  -264.273  774.188
42.2207  -264.261  774.188
42.9464  -264.249  774.188
43.6722  -264.236  774.188
44.3979  -264.224  774.188
45.1337  -263.909  774.188
45.8695  -263.594  774.188
46.6053  -263.279  774.188
47.3411  -262.964  774.188
48.0769  -262.649  774.188
48.8126  -262.334  774.188
49.5484  -262.019  774.188
50.2842  -261.704  774.188
51.02  -261.389  774.188
51.7558  -261.074  774.188
52.4916  -260.759  774.188
53.2274  -260.444  774.188
53.9632  -260.129  774.188
54.699  -259.814  774.188
55.4348  -259.499  774.188
56.1706  -259.184  774.188
56.9063  -258.869  774.188
57.6421  -258.554  774.188
58.3779  -258.239  774.188
59.1137  -257.924  774.188
59.8495  -257.609  774.188
60.5853  -257.294  774.188
61.3211  -256.979  774.188
62.0569  -256.664  774.188
62.7927  -256.349  774.188
63.5285  -256.034  774.188
64.2643  -255.719  774.188
65  -255.404  774.188
65.7358  -255.089  774.188
66.4716  -254.774  774.188
67.2074  -254.459  774.188
67.9432  -254.144  774.188
68.6617  -253.744  774.188
69.3803  -253.343  774.188
70.0988  -252.942  774.188
70.8173  -252.542  774.188
71.2312  -252.058  774.188
71.6451  -251.575  774.188
72.059  -251.091  774.188
72.4728  -250.607  774.188
73.0502  -249.928  774.188
73.6276  -249.249  774.188
74.083  -248.607  774.188
74.5817  -247.888  774.188
74.8204  -247.166  774.188
75.0591  -246.444  774.188
75.2977  -245.722  774.188
75.5364  -245  774.188
75.6824  -244.463  774.188
75.8283  -243.925  774.188
75.9742  -243.388  774.188
76.1201  -242.851  774.188
76.2185  -242.261  774.188
76.3168  -241.671  774.188
76.4152  -241.081  774.188
76.5136  -240.491  774.188
76.6119  -239.901  774.188
76.7103  -239.311  774.188
76.8087  -238.721  774.188
76.907  -238.132  774.188
77.0054  -237.542  774.188
77.1038  -236.952  774.188
77.2021  -236.362  774.188
77.3005  -235.772  774.188
77.3989  -235.182  774.188
77.4972  -234.592  774.188
77.5956  -234.002  774.188
77.694  -233.412  774.188
77.7923  -232.822  774.188
77.8907  -232.233  774.188
77.9891  -231.643  774.188
78.0874  -231.053  774.188
s
78.7239  -236.519  747.458
79.1817  -235.71  747.458
79.6396  -234.902  747.458
79.9308  -234.09  747.458
80.2221  -233.278  747.458
80.5133  -232.465  747.458
80.8046  -231.653  747.458
80.8751  -230.79  747.458
80.9456  -229.926  747.458
80.982  -229.236  747.458
81.0184  -228.545  747.458
80.9757  -227.734  747.458
80.933  -226.923  747.458
80.8903  -226.112  747.458
80.8476  -225.301  747.458
80.3592  -225.026  747.458
79.8707  -224.751  747.458
79.3822  -224.476  747.458
78.8938  -224.202  747.458
78.4053  -223.927  747.458
77.9168  -223.652  747.458
77.4284  -223.378  747.458
76.9399  -223.103  747.458
76.4514  -222.828  747.458
75.963  -222.553  747.458
75.4745  -222.279  747.458
74.9861  -222.004  747.458
74.4976  -221.729  747.458
74.0091  -221.454  747.458
73.5207  -221.18  747.458
73.0322  -220.905  747.458
72.4103  -221.004  747.458
71.7883  -221.104  747.458
71.1664  -221.203  747.458
70.5445  -221.303  747.458
69.9226  -221.402  747.458
69.3007  -221.501  747.458
68.6787  -221.601  747.458
68.0568  -221.7  747.458
67.4349  -221.8  747.458
66.813  -221.899  747.458
66.1911  -221.998  747.458
65.5691  -222.098  747.458
64.9472  -222.197  747.458
64.3253  -222.296  747.458
63.7034  -222.396  747.458
63.0814  -222.495  747.458
62.4595  -222.595  747.458
61.8376  -222.694  747.458
61.2157  -222.793  747.458
60.5938  -222.893  747.458
59.9718  -222.992  747.458
59.3499  -223.092  747.458
58.728  -223.191  747.458
58.1061  -223.29  747.458
57.4841  -223.39  747.458
56.8622  -223.489  747.458
56.2403  -223.589  747.458
55.6184  -223.688  747.458
54.9965  -223.787  747.458
54.3745  -223.887  747.458
53.7526  -223.986  747.458
53.1307  -224.086  747.458
52.5088  -224.185  747.458
51.8868  -224.284  747.458
51.2649  -224.384  747.458
50.643  -224.483  747.458
50.0211  -224.582  747.458
49.3992  -224.682  747.458
48.7772  -224.781  747.458
48.1553  -224.881  747.458
47.5334  -224.98  747.458
46.9115  -225.079  747.458
46.2896  -225.179  747.458
45.6676  -225.278  747.458
45.0457  -225.378  747.458
44.4238  -225.477  747.458
43.8019  -225.576  747.458
43.1799  -225.676  747.458
42.558  -225.775  747.458
41.9361  -225.875  747.458
41.3142  -225.974  747.458
40.6923  -226.073  747.458
40.0703  -226.173  747.458
39.4484  -226.272  747.458
38.8265  -226.371  747.458
38.2046  -226.471  747.458
37.5827  -226.57  747.458
36.9607  -226.67  747.458
36.3388  -226.769  747.458
35.7169  -226.868  747.458
35.095  -226.968  747.458
34.473  -227.067  747.458
33.8511  -227.167  747.458
33.2292  -227.266  747.458
32.6073  -227.365  747.458
31.9854  -227.465  747.458
31.3634  -227.564  747.458
30.7415  -227.664  747.458
30.1196  -227.763  747.458
29.4977  -227.862  747.458
28.8758  -227.962  747.458
28.2538  -228.061  747.458
27.6319  -228.161  747.458
27.01  -228.26  747.458
26.3881  -228.359  747.458
25.7661  -228.459  747.458
25.1442  -228.558  747.458
24.5223  -228.658  747.458
23.9004  -228.757  747.458
23.2785  -228.856  747.458
22.6565  -228.956  747.458
22.0346  -229.055  747.458
21.4127  -229.154  747.458
20.7908  -229.254  747.458
20.1688  -229.353  747.458
19.5469  -229.453  747.458
18.925  -229.552  747.458
18.3031  -229.651  747.458
17.6812  -229.751  747.458
17.0592  -229.85  747.458
16.4373  -229.95  747.458
15.8154  -230.049  747.458
15.1935  -230.148  747.458
14.5716  -230.248  747.458
13.9496  -230.347  747.458
13.3277  -230.447  747.458
12.7058  -230.546  747.458
12.0839  -230.645  747.458
11.4619  -230.745  747.458
10.84  -230.844  747.458
10.2181  -230.943  747.458
9.59618  -231.043  747.458
8.97426  -231.142  747.458
8.35234  -231.242  747.458
7.73042  -231.341  747.458
7.10849  -231.44  747.458
6.48657  -231.54  747.458
5.86465  -231.639  747.458
5.24273  -231.739  747.458
4.62081  -231.838  747.458
3.99889  -231.937  747.458
3.37696  -232.037  747.458
2.75504  -232.136  747.458
2.13312  -232.236  747.458
1.5112  -232.335  747.458
0.889278  -232.434  747.458
0.267356  -232.534  747.458
-0.354566  -232.633  747.458
-0.976487  -232.733  747.458
-1.59841  -232.832  747.458
-2.22033  -232.931  747.458
-2.84225  -233.031  747.458
-3.46417  -233.13  747.458
-4.0861  -233.229  747.458
-4.70802  -233.329  747.458
-5.32994  -233.428  747.458
-5.95186  -233.528  747.458
-6.57378  -233.627  747.458
-7.19923  -234.003  747.458
-7.82467  -234.379  747.458
-8.45011  -234.755  747.458
-9.07555  -235.131  747.458
-9.42584  -235.593  747.458
-9.77613  -236.056  747.458
-10.1264  -236.518  747.458
-10.4767  -236.98  747.458
-10.5618  -237.653  747.458
-10.6468  -238.326  747.458
-10.7319  -238.998  747.458
-10.8169  -239.671  747.458
-10.8822  -240.476  747.458
-10.9475  -241.281  747.458
-11.0128  -242.086  747.458
-11.0781  -242.891  747.458
-10.8318  -243.399  747.458
-10.5854  -243.907  747.458
-10.144  -244.367  747.458
-9.70273  -244.828  747.458
-9.26141  -245.288  747.458
-8.8201  -245.749  747.458
-8.37879  -246.209  747.458
-7.93748  -246.67  747.458
-7.49616  -247.13  747.458
-7.05485  -247.591  747.458
-6.38735  -247.713  747.458
-5.71986  -247.836  747.458
-5.05236  -247.958  747.458
-4.38486  -248.081  747.458
-3.71736  -248.203  747.458
-3.04987  -248.326  747.458
-2.38237  -248.448  747.458
-1.71487  -248.571  747.458
-0.985282  -248.702  747.458
-0.255691  -248.833  747.458
0.4739  -248.964  747.458
1.20349  -249.095  747.458
1.93308  -249.227  747.458
2.66267  -249.358  747.458
3.39226  -249.489  747.458
4.12186  -249.62  747.458
4.85145  -249.751  747.458
5.58104  -249.882  747.458
6.31063  -250.014  747.458
7.04022  -250.145  747.458
7.76981  -250.276  747.458
8.4994  -250.407  747.458
9.22899  -250.538  747.458
9.95858  -250.67  747.458
10.6882  -250.801  747.458
11.4178  -250.932  747.458
12.1474  -251.063  747.458
12.8769  -251.194  747.458
13.6065  -251.326  747.458
14.3361  -251.457  747.458
15.0657  -251.588  747.458
15.7953  -251.719  747.458
16.5249  -251.85  747.458
17.2545  -251.981  747.458
17.9841  -252.113  747.458
18.7137  -252.244  747.458
19.4433  -252.375  747.458
20.1729  -252.506  747.458
20.9025  -252.637  747.458
21.632  -252.769  747.458
22.4274  -252.76  747.458
23.2228  -252.752  747.458
24.0182  -252.744  747.458
24.8135  -252.736  747.458
25.6089  -252.728  747.458
26.4043  -252.72  747.458
27.1996  -252.712  747.458
27.995  -252.703  747.458
28.7904  -252.695  747.458
29.5857  -252.687  747.458
30.3811  -252.679  747.458
31.1765  -252.671  747.458
31.9719  -252.663  747.458
32.7672  -252.655  747.458
33.5626  -252.647  747.458
34.358  -252.638  747.458
35.1533  -252.63  747.458
35.9487  -252.622  747.458
36.7441  -252.614  747.458
37.5395  -252.606  747.458
38.3348  -252.598  747.458
39.1302  -252.59  747.458
39.9256  -252.581  747.458
40.7209  -252.573  747.458
41.5163  -252.565  747.458
42.3117  -252.557  747.458
43.107  -252.549  747.458
43.9024  -252.541  747.458
44.6978  -252.533  747.458
45.4932  -252.525  747.458
46.2885  -252.516  747.458
47.0839  -252.508  747.458
47.4395  -252.459  747.458
48.1325  -252.344  747.458
48.9218  -251.979  747.458
49.7112  -251.614  747.458
50.5005  -251.248  747.458
51.2898  -250.883  747.458
52.0792  -250.518  747.458
52.8685  -250.153  747.458
53.6578  -249.788  747.458
54.4472  -249.423  747.458
55.2365  -249.058  747.458
56.0258  -248.692  747.458
56.8152  -248.327  747.458
57.6045  -247.962  747.458
58.3938  -247.597  747.458
59.1832  -247.232  747.458
59.9725  -246.867  747.458
60.7618  -246.501  747.458
61.5512  -246.136  747.458
62.3405  -245.771  747.458
63.1299  -245.406  747.458
63.9192  -245.041  747.458
64.7085  -244.676  747.458
65.4979  -244.311  747.458
66.2872  -243.945  747.458
67.0765  -243.58  747.458
67.8659  -243.215  747.458
68.6552  -242.85  747.458
69.4445  -242.485  747.458
70.2339  -242.12  747.458
71.0232  -241.754  747.458
71.8125  -241.389  747.458
72.6019  -241.024  747.458
73.3912  -240.659  747.458
74.0207  -240.336  747.458
74.6501  -240.014  747.458
74.9085  -239.871  747.458
75.4169  -239.495  747.458
75.9254  -239.119  747.458
76.4339  -238.744  747.458
76.9424  -238.368  747.458
77.1751  -238.191  747.458
77.5734  -237.803  747.458
78.1638  -237.182  747.458
78.3602  -236.955  747.458
s
78.8071  -222.134  720.728
79.2976  -221.323  720.728
79.742  -220.441  720.728
80.1864  -219.558  720.728
80.3434  -219.018  720.728
80.5004  -218.478  720.728
80.6353  -217.903  720.728
80.7702  -217.328  720.728
80.8143  -216.615  720.728
80.8583  -215.902  720.728
80.8351  -215.276  720.728
80.8119  -214.65  720.728
80.7886  -214.024  720.728
80.7654  -213.398  720.728
80.7422  -212.772  720.728
80.7189  -212.146  720.728
80.6957  -211.52  720.728
80.6724  -210.894  720.728
79.8493  -210.517  720.728
79.0261  -210.141  720.728
78.2029  -209.764  720.728
77.3797  -209.387  720.728
76.5566  -209.011  720.728
75.7334  -208.634  720.728
74.9102  -208.257  720.728
74.087  -207.881  720.728
73.4545  -207.929  720.728
72.822  -207.978  720.728
72.1894  -208.026  720.728
71.5569  -208.075  720.728
70.9244  -208.123  720.728
70.2919  -208.172  720.728
69.6593  -208.22  720.728
69.0268  -208.269  720.728
68.3943  -208.318  720.728
67.7617  -208.366  720.728
67.1292  -208.415  720.728
66.4967  -208.463  720.728
65.8642  -208.512  720.728
65.2316  -208.56  720.728
64.5991  -208.609  720.728
63.9666  -208.657  720.728
63.334  -208.706  720.728
62.7015  -208.754  720.728
62.069  -208.803  720.728
61.4364  -208.852  720.728
60.8039  -208.9  720.728
60.1714  -208.949  720.728
59.5389  -208.997  720.728
58.9063  -209.046  720.728
58.2738  -209.094  720.728
57.6413  -209.143  720.728
57.0087  -209.191  720.728
56.3762  -209.24  720.728
55.7437  -209.288  720.728
55.1112  -209.337  720.728
54.4786  -209.385  720.728
53.8461  -209.434  720.728
53.2136  -209.483  720.728
52.581  -209.531  720.728
51.9485  -209.58  720.728
51.316  -209.628  720.728
50.6834  -209.677  720.728
50.0509  -209.725  720.728
49.4184  -209.774  720.728
48.7859  -209.822  720.728
48.1533  -209.871  720.728
47.5208  -209.919  720.728
46.8883  -209.968  720.728
46.2557  -210.016  720.728
45.6232  -210.065  720.728
44.9907  -210.114  720.728
44.3581  -210.162  720.728
43.7256  -210.211  720.728
43.0931  -210.259  720.728
42.4606  -210.308  720.728
41.828  -210.356  720.728
41.1955  -210.405  720.728
40.563  -210.453  720.728
39.9304  -210.502  720.728
39.2979  -210.55  720.728
38.6654  -210.599  720.728
38.0329  -210.648  720.728
37.4003  -210.696  720.728
36.7678  -210.745  720.728
36.1353  -210.793  720.728
35.5027  -210.842  720.728
34.8702  -210.89  720.728
34.2377  -210.939  720.728
33.6051  -210.987  720.728
32.9726  -211.036  720.728
32.3401  -211.084  720.728
31.7076  -211.133  720.728
31.075  -211.181  720.728
30.4425  -211.23  720.728
29.81  -211.279  720.728
29.1774  -211.327  720.728
28.5449  -211.376  720.728
27.9124  -211.424  720.728
27.2799  -211.473  720.728
26.6473  -211.521  720.728
26.0148  -211.57  720.728
25.3823  -211.618  720.728
24.7497  -211.667  720.728
24.1172  -211.715  720.728
23.4847  -211.764  720.728
22.8521  -211.812  720.728
22.2196  -211.861  720.728
21.5871  -211.91  720.728
20.9546  -211.958  720.728
20.322  -212.007  720.728
19.6895  -212.055  720.728
19.057  -212.104  720.728
18.4244  -212.152  720.728
17.7919  -212.201  720.728
17.1594  -212.249  720.728
16.5268  -212.298  720.728
15.8943  -212.346  720.728
15.2618  -212.395  720.728
14.6293  -212.444  720.728
13.9967  -212.492  720.728
13.3642  -212.541  720.728
12.7317  -212.589  720.728
12.0991  -212.638  720.728
11.4666  -212.686  720.728
10.8341  -212.735  720.728
10.2016  -212.783  720.728
9.56902  -212.832  720.728
8.93649  -212.88  720.728
8.30396  -212.929  720.728
7.67143  -212.977  720.728
7.0389  -213.026  720.728
6.40637  -213.075  720.728
5.77384  -213.123  720.728
5.14131  -213.172  720.728
4.50879  -213.22  720.728
3.87626  -213.269  720.728
3.24373  -213.317  720.728
2.6112  -213.366  720.728
1.97867  -213.414  720.728
1.34614  -213.463  720.728
0.713608  -213.511  720.728
0.0810786  -213.56  720.728
-0.551451  -213.608  720.728
-1.18398  -213.657  720.728
-1.81651  -213.706  720.728
-2.44904  -213.754  720.728
-3.08157  -213.803  720.728
-3.7141  -213.851  720.728
-4.34663  -213.9  720.728
-4.97916  -213.948  720.728
-5.61169  -213.997  720.728
-6.24422  -214.045  720.728
-6.87675  -214.094  720.728
