-0.0444052 -232.519 850.806
-0.420752 -232.633 850.661
-0.80179 -232.748 850.514
-1.18738 -232.864 850.365
-1.57735 -232.982 850.214
-1.97146 -233.103 850.062
-2.36945 -233.228 849.908
-2.77099 -233.358 849.754
-3.17573 -233.492 849.599
-3.58325 -233.633 849.443
-3.99311 -233.781 849.287
-4.40481 -233.935 849.132
-4.81783 -234.098 848.976
-5.23159 -234.269 848.821
-5.64549 -234.45 848.667
-6.05888 -234.64 848.514
-6.4711 -234.84 848.363
-6.88143 -235.05 848.214
-7.28913 -235.271 848.067
-7.69345 -235.503 847.922
-8.09359 -235.747 847.781
-8.48872 -236.002 847.643
-8.87814 -236.269 847.509
-9.26148 -236.547 847.378
-9.63846 -236.837 847.251
-10.0088 -237.137 847.129
-10.3722 -237.449 847.01
-10.7284 -237.771 846.895
-11.0772 -238.103 846.785
-11.4182 -238.446 846.679
-11.7513 -238.799 846.578
-12.0762 -239.162 846.481
-12.3926 -239.534 846.389
-12.7003 -239.915 846.301
-12.999 -240.305 846.218
-13.2886 -240.704 846.14
-13.5688 -241.112 846.066
-13.8394 -241.528 845.998
-14.1002 -241.951 845.934
-14.3509 -242.383 845.876
-14.5914 -242.821 845.823
-14.8215 -243.267 845.774
-15.041 -243.72 845.731
-15.2496 -244.179 845.694
-15.4473 -244.644 845.661
-15.6338 -245.116 845.634
-15.809 -245.593 845.612
-15.9726 -246.075 845.596
-16.1246 -246.562 845.585
-16.2648 -247.054 845.579
-16.3931 -247.55 845.579
-16.5092 -248.05 845.585
-16.6132 -248.554 845.596
-16.7048 -249.061 845.612
-16.784 -249.57 845.634
-16.851 -250.083 845.661
-16.9056 -250.597 845.694
-16.948 -251.112 845.732
-16.9783 -251.629 845.775
-16.9965 -252.146 845.824
-17.0027 -252.663 845.877
-16.997 -253.179 845.936
-16.9795 -253.695 845.999
-16.9504 -254.21 846.067
-16.9099 -254.723 846.139
-16.8581 -255.234 846.216
-16.7951 -255.743 846.298
-16.7212 -256.249 846.384
-16.6365 -256.753 846.474
-16.5413 -257.252 846.568
-16.4358 -257.748 846.666
-16.3201 -258.241 846.767
-16.1946 -258.729 846.873
-16.0596 -259.212 846.982
-15.9151 -259.69 847.094
-15.7615 -260.164 847.21
-15.5992 -260.632 847.329
-15.4282 -261.095 847.45
-15.249 -261.551 847.575
-15.0618 -262.003 847.702
-14.8668 -262.448 847.832
-14.6641 -262.886 847.965
-14.4537 -263.319 848.1
-14.2357 -263.745 848.237
-14.0101 -264.164 848.377
-13.777 -264.577 848.52
-13.5363 -264.983 848.665
-13.2882 -265.382 848.812
-13.0327 -265.773 848.961
-12.7699 -266.157 849.113
-12.4999 -266.533 849.267
-12.2226 -266.902 849.423
-11.9382 -267.263 849.582
-11.6467 -267.616 849.742
-11.3482 -267.96 849.904
-11.0429 -268.296 850.069
-10.7307 -268.623 850.235
-10.4118 -268.941 850.403
-10.0864 -269.251 850.573
-9.7544 -269.551 850.745
-9.416 -269.841 850.918
-9.07137 -270.122 851.093
-8.72059 -270.393 851.27
-8.36381 -270.654 851.447
-8.00117 -270.904 851.627
-7.63283 -271.144 851.807
-7.25903 -271.373 851.989
-6.88025 -271.592 852.171
-6.49694 -271.8 852.354
-6.10958 -271.998 852.538
-5.71861 -272.185 852.722
-5.32451 -272.362 852.907
-4.92768 -272.529 853.091
-4.52859 -272.685 853.276
-4.12758 -272.833 853.46
-3.72507 -272.97 853.643
-3.32145 -273.099 853.826
-2.91709 -273.218 854.009
-2.51229 -273.328 854.19
-2.10744 -273.431 854.371
-1.70279 -273.525 854.551
-1.29869 -273.611 854.73
-0.895344 -273.689 854.908
-0.49308 -273.761 855.084
-0.0920609 -273.825 855.259
0.307447 -273.884 855.433
0.705278 -273.936 855.605
1.10127 -273.982 855.776
1.49532 -274.023 855.946
1.88738 -274.059 856.114
2.27746 -274.09 856.281
2.66558 -274.116 856.447
3.0517 -274.138 856.611
3.43585 -274.155 856.774
3.81813 -274.168 856.936
4.19845 -274.176 857.096
4.57692 -274.181 857.255
4.95356 -274.182 857.413
5.32842 -274.179 857.57
5.70157 -274.173 857.726
6.07306 -274.163 857.881
6.44298 -274.15 858.034
6.8114 -274.134 858.187
7.1784 -274.115 858.339
7.54406 -274.093 858.49
7.90849 -274.069 858.64
8.27176 -274.042 858.789
8.63404 -274.012 858.938
8.99538 -273.98 859.086
9.35594 -273.945 859.233
9.7158 -273.909 859.38
10.0751 -273.869 859.527
10.4339 -273.828 859.673
10.7924 -273.784 859.818
11.1505 -273.737 859.963
11.5085 -273.687 860.108
11.8664 -273.635 860.252
12.2243 -273.58 860.397
12.5822 -273.522 860.54
12.9402 -273.461 860.684
13.2984 -273.397 860.827
13.6568 -273.329 860.97
14.0155 -273.258 861.113
14.3746 -273.183 861.255
14.734 -273.105 861.397
15.0938 -273.023 861.539
15.454 -272.937 861.681
15.8147 -272.848 861.823
16.1758 -272.754 861.964
16.5373 -272.655 862.105
16.8993 -272.553 862.245
17.2618 -272.446 862.386
17.6247 -272.334 862.526
17.9879 -272.217 862.666
18.3517 -272.096 862.805
18.7157 -271.97 862.944
19.0802 -271.839 863.083
19.4451 -271.703 863.221
19.8103 -271.562 863.359
20.1759 -271.417 863.496
20.5418 -271.266 863.633
20.908 -271.11 863.77
21.2746 -270.949 863.906
21.6414 -270.783 864.042
22.0085 -270.612 864.177
22.3759 -270.435 864.312
22.7435 -270.254 864.447
23.1114 -270.066 864.581
23.4794 -269.874 864.714
23.8476 -269.676 864.847
24.2159 -269.472 864.98
24.5843 -269.263 865.112
24.9529 -269.049 865.243
25.3214 -268.828 865.373
25.69 -268.602 865.504
26.0586 -268.37 865.633
26.4271 -268.133 865.762
26.7955 -267.889 865.89
27.1638 -267.64 866.017
27.5318 -267.384 866.144
27.8988 -267.122 866.269
28.264 -266.852 866.393
28.6267 -266.575 866.515
28.9861 -266.29 866.635
29.3413 -265.996 866.752
29.6915 -265.693 866.866
30.0356 -265.381 866.977
30.3729 -265.059 867.083
30.7024 -264.728 867.186
31.0238 -264.388 867.284
31.3379 -264.039 867.377
31.6456 -263.681 867.468
31.948 -263.315 867.555
32.2459 -262.941 867.639
32.5403 -262.559 867.721
32.8321 -262.169 867.802
33.1225 -261.772 867.88
33.4122 -261.366 867.958
33.7024 -260.953 868.035
33.9941 -260.531 868.111
34.288 -260.1 868.188
34.5835 -259.66 868.264
34.8789 -259.211 868.339
35.1727 -258.755 868.413
35.4633 -258.291 868.485
35.749 -257.821 868.554
36.0283 -257.345 868.619
36.2999 -256.865 868.681
36.5622 -256.381 868.739
36.8138 -255.895 868.792
37.0536 -255.409 868.84
37.2803 -254.924 868.882
37.4927 -254.441 868.919
37.6894 -253.962 868.949
37.8682 -253.487 868.973
38.0265 -253.014 868.988
38.1618 -252.544 868.994
38.2717 -252.077 868.989
38.3535 -251.611 868.973
38.4044 -251.148 868.944
38.4218 -250.687 868.902
38.403 -250.228 868.844
38.3452 -249.773 868.771
38.2457 -249.322 868.68
38.1016 -248.876 868.572
37.9145 -248.436 868.445
37.6929 -248.002 868.305
37.4463 -247.574 868.156
37.1839 -247.15 868
36.9149 -246.73 867.842
36.6485 -246.312 867.685
36.392 -245.892 867.532
36.1457 -245.472 867.383
35.9083 -245.05 867.238
35.6784 -244.627 867.095
35.4545 -244.203 866.956
35.2354 -243.779 866.818
35.0197 -243.354 866.681
34.8062 -242.929 866.546
34.5934 -242.504 866.411
34.3802 -242.08 866.275
34.1655 -241.658 866.14
33.9479 -241.239 866.003
33.7265 -240.822 865.865
33.5 -240.41 865.725
33.2676 -240.002 865.584
33.0282 -239.601 865.44
32.781 -239.206 865.294
32.525 -238.82 865.144
32.2595 -238.443 864.992
31.9838 -238.077 864.837
31.6972 -237.723 864.679
31.3991 -237.383 864.517
31.089 -237.057 864.351
30.7664 -236.748 864.183
30.431 -236.456 864.01
30.0825 -236.184 863.835
29.721 -235.933 863.656
29.3478 -235.701 863.475
28.9647 -235.489 863.291
28.5733 -235.296 863.106
28.1751 -235.119 862.92
27.7715 -234.959 862.733
27.364 -234.814 862.547
26.9539 -234.683 862.361
26.5425 -234.564 862.175
26.1309 -234.456 861.991
25.7202 -234.358 861.808
25.3116 -234.268 861.627
24.9058 -234.185 861.448
24.5039 -234.106 861.271
24.1067 -234.031 861.096
23.7148 -233.958 860.924
23.329 -233.885 860.754
22.9497 -233.81 860.587
22.5774 -233.732 860.423
22.2124 -233.648 860.261
21.8551 -233.557 860.101
21.505 -233.458 859.943
21.1613 -233.352 859.788
20.8231 -233.239 859.634
20.4896 -233.119 859.481
20.16 -232.993 859.329
19.8336 -232.862 859.178
19.5096 -232.725 859.027
19.1873 -232.585 858.877
18.8661 -232.44 858.727
18.5454 -232.293 858.576
18.2245 -232.144 858.426
17.9031 -231.993 858.274
17.5805 -231.841 858.123
17.2564 -231.689 857.97
16.9304 -231.538 857.817
16.6022 -231.389 857.664
16.2715 -231.243 857.509
15.9381 -231.099 857.354
15.6018 -230.96 857.198
15.2626 -230.827 857.041
14.9202 -230.699 856.884
14.5749 -230.579 856.726
14.2266 -230.466 856.568
13.8754 -230.362 856.409
13.5216 -230.268 856.251
13.1653 -230.184 856.092
12.8069 -230.112 855.934
12.4466 -230.052 855.776
12.085 -230.004 855.62
11.7223 -229.968 855.464
11.359 -229.944 855.309
10.9953 -229.931 855.155
10.6316 -229.929 855.002
10.268 -229.936 854.851
9.90494 -229.953 854.7
9.54248 -229.98 854.551
9.18085 -230.015 854.403
8.82017 -230.058 854.257
8.46058 -230.109 854.111
8.10215 -230.167 853.967
7.74493 -230.232 853.825
7.38896 -230.303 853.683
7.03422 -230.38 853.543
6.68071 -230.462 853.403
6.32834 -230.549 853.265
5.97703 -230.641 853.128
5.62668 -230.736 852.991
5.27712 -230.836 852.855
4.92821 -230.938 852.72
4.57974 -231.043 852.585
4.23149 -231.15 852.451
3.88321 -231.26 852.317
3.53463 -231.371 852.183
3.18545 -231.484 852.049
2.83536 -231.598 851.914
2.484 -231.712 851.779
2.13101 -231.827 851.644
1.776 -231.943 851.507
1.41857 -232.058 851.37
1.05827 -232.174 851.231
0.694658 -232.289 851.091
0.327264 -232.404 850.95
