29.700455 24.399860 784.070000
33.444118 33.511986 784.070000
25.121654 41.176938 784.070000
18.325734 48.709933 784.070000
16.596784 56.619759 784.070000
6.353152 61.072220 784.070000
3.172340 67.812087 784.070000
-4.067042 71.487513 784.070000
-8.371031 78.147748 784.070000
-9.072975 88.757709 784.070000
-10.224030 102.579932 784.070000
-10.586562 113.839250 784.070000
-13.250919 122.687356 784.070000
-17.636915 132.194889 784.070000
-22.338058 140.512889 784.070000
-29.271447 147.815624 784.070000
-36.284292 152.523137 784.070000
-43.831429 156.243202 784.070000
-52.950002 159.105208 784.070000
-61.188934 161.073027 784.070000
-71.229805 161.567083 784.070000
-82.527405 159.125667 784.070000
-94.370078 152.701825 784.070000
-106.627667 149.241753 784.070000
-116.577008 143.179967 784.070000
-128.746004 139.089006 784.070000
-140.531331 133.605300 784.070000
-150.945460 127.652932 784.070000
-159.034438 117.251776 784.070000
-168.036615 107.878417 784.070000
-175.411241 96.959507 784.070000
-176.317027 89.536201 784.070000
-180.471801 83.872104 784.070000
-180.275494 74.949105 784.070000
-181.436613 68.166435 784.070000
-181.797609 60.125777 784.070000
-180.865009 53.131543 784.070000
-180.792154 46.567006 784.070000
-177.856314 38.724813 784.070000
-174.905967 32.351729 784.070000
-170.708127 24.399860 784.070000
-169.719965 18.711989 784.070000
-166.092582 12.447599 784.070000
-172.471016 5.777626 784.070000
-174.858962 -1.842934 784.070000
-177.655032 -10.098971 784.070000
-180.346379 -17.796005 784.070000
-181.310928 -26.588902 784.070000
-181.374466 -34.218541 784.070000
-179.103116 -42.312775 784.070000
-178.621731 -52.042319 784.070000
-173.567956 -64.990451 784.070000
-166.579953 -77.375065 784.070000
-157.536834 -88.409037 784.070000
-146.422327 -97.326042 784.070000
-134.269341 -104.769324 784.070000
-120.351997 -108.482556 784.070000
-107.201611 -113.117537 784.070000
-93.885972 -117.226574 784.070000
-80.255233 -120.423060 784.070000
-66.365591 -123.556972 784.070000
-57.329170 -122.998579 784.070000
-48.469331 -120.985861 784.070000
-39.887944 -118.128389 784.070000
-31.427618 -115.616121 784.070000
-23.959865 -109.843824 784.070000
-17.151246 -103.494872 784.070000
-11.400508 -95.800034 784.070000
-7.464468 -85.751618 784.070000
-4.402356 -75.970076 784.070000
-4.371746 -63.416050 784.070000
-7.096904 -43.603142 784.070000
-5.946191 -32.805675 784.070000
-1.161478 -25.969156 784.070000
3.606704 -20.132949 784.070000
6.152434 -12.163520 784.070000
11.269640 -6.356980 784.070000
19.501067 -1.041600 784.070000
24.466394 6.973086 784.070000
29.910893 14.824882 784.070000
29.700455 24.399860 784.070000
s
36.418784 24.399860 849.070000
35.102888 31.978190 849.070000
37.787519 40.962837 849.070000
32.321719 48.583359 849.070000
30.102198 55.833917 849.070000
30.556621 65.247613 849.070000
23.365070 71.268909 849.070000
24.432959 81.071754 849.070000
15.747983 85.598247 849.070000
9.884268 91.845810 849.070000
5.244732 99.616504 849.070000
3.136641 108.230581 849.070000
-3.759157 111.166788 849.070000
-7.541605 119.221193 849.070000
-12.248233 127.006172 849.070000
-18.828578 131.937889 849.070000
-24.948445 139.340007 849.070000
-32.948613 142.029261 849.070000
-40.630351 147.253109 849.070000
-49.037831 150.593888 849.070000
-59.753928 152.775912 849.070000
-71.352644 153.542039 849.070000
-83.695036 152.038310 849.070000
-95.940685 145.593619 849.070000
-106.770744 140.116025 849.070000
-117.553883 132.675920 849.070000
-129.198990 129.126162 849.070000
-137.631671 120.501551 849.070000
-147.626402 112.359267 849.070000
-155.552534 103.580322 849.070000
-160.455046 91.664768 849.070000
-162.207496 85.097935 849.070000
-164.297703 78.074887 849.070000
-166.331287 71.212251 849.070000
-166.434317 64.799777 849.070000
-167.442742 57.901556 849.070000
-167.270513 50.848968 849.070000
-165.690817 44.712968 849.070000
-166.069120 38.207598 849.070000
-164.769943 31.642949 849.070000
-160.858823 24.399860 849.070000
-161.469345 19.144386 849.070000
-164.862827 13.503294 849.070000
-166.887654 7.658827 849.070000
-163.376453 1.745432 849.070000
-160.586572 -3.165545 849.070000
-160.524689 -8.837419 849.070000
-169.062968 -19.184079 849.070000
-168.044042 -25.427495 849.070000
-167.553388 -32.155124 849.070000
-168.163429 -41.442025 849.070000
-164.342739 -53.332108 849.070000
-158.794153 -66.618480 849.070000
-150.914176 -77.016078 849.070000
-139.866199 -85.901598 849.070000
-129.729718 -94.316260 849.070000
-115.882126 -98.443061 849.070000
-104.341125 -104.568444 849.070000
-90.803686 -109.183654 849.070000
-78.183490 -114.009695 849.070000
-63.655195 -114.047159 849.070000
-54.101597 -110.834575 849.070000
-44.609284 -110.630551 849.070000
-34.341296 -107.560495 849.070000
-26.032126 -102.371495 849.070000
-16.630259 -98.024094 849.070000
-10.489852 -89.472143 849.070000
-3.929840 -83.288834 849.070000
0.372113 -72.231628 849.070000
3.968763 -63.655714 849.070000
7.759160 -54.808650 849.070000
12.078790 -47.600132 849.070000
17.356498 -40.347998 849.070000
21.129679 -32.176155 849.070000
24.031850 -23.815740 849.070000
27.541804 -16.037067 849.070000
30.691376 -9.041838 849.070000
32.530979 -0.712315 849.070000
36.816005 7.118945 849.070000
35.766992 15.917315 849.070000
36.418784 24.399860 849.070000
s
40.333777 24.399860 914.070000
38.450505 31.367328 914.070000
36.950624 39.066915 914.070000
37.364874 46.248713 914.070000
35.936089 54.093959 914.070000
33.736502 61.791983 914.070000
30.261827 68.019635 914.070000
25.926607 74.696040 914.070000
22.242988 80.675402 914.070000
16.210075 85.965811 914.070000
11.406559 91.783071 914.070000
6.425956 98.188564 914.070000
1.663606 104.847442 914.070000
-3.768103 112.820185 914.070000
-9.172438 120.202327 914.070000
-16.692596 126.734429 914.070000
-24.072241 132.194563 914.070000
-32.280255 136.181425 914.070000
-41.894448 139.699162 914.070000
-51.151974 139.122835 914.070000
-61.519207 139.341952 914.070000
-70.112229 137.781072 914.070000
-79.435936 133.439642 914.070000
-88.232944 128.971286 914.070000
-96.910397 125.274161 914.070000
-104.517869 119.476531 914.070000
-111.669429 113.623833 914.070000
-117.226595 105.935162 914.070000
-122.410232 98.667233 914.070000
-125.820986 90.169913 914.070000
-128.748803 82.052907 914.070000
-130.698002 75.833865 914.070000
-132.573336 69.876739 914.070000
-133.931909 63.896073 914.070000
-136.824021 58.868755 914.070000
-141.763326 54.525390 914.070000
-141.059755 48.058675 914.070000
-139.407679 41.740538 914.070000
-144.328814 36.825198 914.070000
-142.704037 30.815237 914.070000
-141.032036 24.399860 914.070000
-138.391507 19.677948 914.070000
-142.374456 13.711583 914.070000
-141.234222 8.840632 914.070000
-141.305592 2.932666 914.070000
-143.626423 -3.183338 914.070000
-140.318115 -8.376520 914.070000
-137.210843 -12.678503 914.070000
-137.790519 -19.826086 914.070000
-134.093034 -23.854312 914.070000
-132.008360 -30.122920 914.070000
-129.953537 -38.611290 914.070000
-125.474758 -46.996781 914.070000
-122.359387 -56.776074 914.070000
-117.093931 -66.828805 914.070000
-109.133738 -71.762540 914.070000
-101.321092 -80.147988 914.070000
-93.845524 -89.487205 914.070000
-82.577784 -91.004049 914.070000
-72.886651 -97.085581 914.070000
-60.930176 -100.524821 914.070000
-51.515384 -98.514244 914.070000
-40.764922 -97.649222 914.070000
-30.446624 -94.471833 914.070000
-22.116673 -89.074225 914.070000
-13.234711 -83.307088 914.070000
-5.244622 -76.526350 914.070000
0.219159 -68.377648 914.070000
6.044150 -60.123711 914.070000
12.537973 -53.292089 914.070000
18.538100 -46.092022 914.070000
21.089900 -38.734910 914.070000
23.458866 -31.627297 914.070000
26.736524 -25.345971 914.070000
30.892920 -18.538614 914.070000
34.897151 -12.484132 914.070000
37.560224 -5.790788 914.070000
40.128034 1.938429 914.070000
39.916601 9.289536 914.070000
39.688102 16.460665 914.070000
40.333777 24.399860 914.070000
30.882757 24.399860 997.070000
30.390140 30.001076 997.070000
30.150374 35.614916 997.070000
29.872345 41.277070 997.070000
30.613517 47.288781 997.070000
29.138921 53.749159 997.070000
27.267015 59.243584 997.070000
25.141110 64.656220 997.070000
22.364996 69.765942 997.070000
19.318236 74.706323 997.070000
15.083420 79.598879 997.070000
7.547585 85.212795 997.070000
2.091264 93.458077 997.070000
-3.604811 100.816571 997.070000
-11.005779 107.918655 997.070000
-18.774013 115.358951 997.070000
-27.048832 120.808534 997.070000
-36.714119 126.344801 997.070000
-46.094774 131.800388 997.070000
-57.317660 135.258625 997.070000
-69.193693 135.112356 997.070000
-77.956413 136.593682 997.070000
-87.835472 135.390678 997.070000
-97.149328 131.874150 997.070000
-105.032492 125.233139 997.070000
-113.143654 120.088550 997.070000
-119.628888 114.389497 997.070000
-127.138853 108.811907 997.070000
-132.332222 100.691696 997.070000
-135.989166 91.750291 997.070000
-139.056126 83.273135 997.070000
-140.612720 76.969317 997.070000
-141.800895 70.941197 997.070000
-144.572950 65.973596 997.070000
-143.500311 58.494348 997.070000
-143.184840 52.633314 997.070000
-143.175467 47.136738 997.070000
-142.836467 41.011238 997.070000
-141.532577 35.691422 997.070000
-138.645393 30.495815 997.070000
-136.468573 24.399860 997.070000
-136.538513 21.110026 997.070000
-137.653321 17.037177 997.070000
-138.949658 12.778441 997.070000
-138.765539 8.616721 997.070000
-138.261187 4.467620 997.070000
-138.194026 0.857040 997.070000
-138.024986 -3.566176 997.070000
-138.052147 -8.226639 997.070000
-137.300158 -12.722065 997.070000
-135.516415 -17.056811 997.070000
-134.354742 -26.831391 997.070000
-131.082404 -36.357607 997.070000
-125.539268 -45.826207 997.070000
-119.130506 -53.903681 997.070000
-111.162129 -62.156254 997.070000
-102.632167 -68.683166 997.070000
-93.375700 -74.660820 997.070000
-82.093687 -78.350283 997.070000
-71.295097 -80.556662 997.070000
-58.917645 -81.480118 997.070000
-50.129536 -80.823284 997.070000
-40.490084 -77.338238 997.070000
-31.713804 -75.106511 997.070000
-23.096415 -69.882432 997.070000
-15.333747 -63.687135 997.070000
-8.837097 -57.776063 997.070000
-2.775105 -50.366432 997.070000
2.426248 -43.819071 997.070000
7.530725 -36.398158 997.070000
13.128881 -29.895941 997.070000
15.993174 -24.770566 997.070000
20.163431 -20.694492 997.070000
22.569068 -15.550658 997.070000
25.217769 -10.510715 997.070000
27.458981 -4.403594 997.070000
29.635576 0.911044 997.070000
30.866033 6.506187 997.070000
31.300927 12.223338 997.070000
31.449239 17.921968 997.070000
30.882757 24.399860 997.070000
s
23.247850 24.399860 1063.070000
23.238598 28.824519 1063.070000
23.473020 33.298190 1063.070000
23.455302 37.806190 1063.070000
23.213236 42.340095 1063.070000
22.329894 46.778662 1063.070000
21.235410 51.181152 1063.070000
18.978204 55.173140 1063.070000
16.843115 59.141966 1063.070000
14.778008 63.106950 1063.070000
13.643359 67.623416 1063.070000
10.444370 76.444502 1063.070000
5.594795 85.595872 1063.070000
0.234067 93.825933 1063.070000
-5.468470 103.976929 1063.070000
-12.081162 112.992625 1063.070000
-21.222587 120.887156 1063.070000
-30.737986 127.200538 1063.070000
-41.935143 133.593535 1063.070000
-53.361895 136.331725 1063.070000
-66.515823 136.778701 1063.070000
-75.880774 135.995462 1063.070000
-86.660489 134.729285 1063.070000
-96.482189 133.021330 1063.070000
-106.927774 129.591991 1063.070000
-115.245208 123.959132 1063.070000
-125.924277 120.373953 1063.070000
-131.327695 111.014017 1063.070000
-140.240665 104.843486 1063.070000
-143.690962 94.863248 1063.070000
-146.566504 84.184195 1063.070000
-149.292549 79.453108 1063.070000
-149.690667 72.452380 1063.070000
-151.373305 66.453523 1063.070000
-152.551944 60.388706 1063.070000
-154.467941 54.708046 1063.070000
-152.733029 48.074772 1063.070000
-151.660324 41.985716 1063.070000
-149.605962 36.040182 1063.070000
-147.210426 30.415068 1063.070000
-142.043121 24.399860 1063.070000
-144.003240 22.231291 1063.070000
-142.047170 19.454358 1063.070000
-144.197827 16.407012 1063.070000
-147.086816 13.091189 1063.070000
-146.533652 10.118052 1063.070000
-149.113605 6.511383 1063.070000
-147.884315 3.586140 1063.070000
-147.698264 0.408699 1063.070000
-148.047863 -2.986656 1063.070000
-149.314198 -7.041260 1063.070000
-147.685547 -18.725761 1063.070000
-145.070079 -31.119859 1063.070000
-139.608322 -43.769075 1063.070000
-133.828287 -56.274316 1063.070000
-123.783417 -66.675678 1063.070000
-113.431201 -75.956602 1063.070000
-100.684301 -81.235299 1063.070000
-86.355063 -84.606621 1063.070000
-72.898760 -87.011696 1063.070000
-58.395071 -86.549529 1063.070000
-47.804948 -84.603955 1063.070000
-36.844152 -81.048973 1063.070000
-27.216147 -74.264279 1063.070000
-18.595382 -69.063160 1063.070000
-10.640129 -61.414981 1063.070000
-3.522438 -53.531937 1063.070000
0.476128 -44.086130 1063.070000
4.256804 -34.527748 1063.070000
8.656886 -26.346099 1063.070000
11.852660 -17.912139 1063.070000
13.731273 -13.773892 1063.070000
15.661896 -9.816334 1063.070000
16.900735 -5.575956 1063.070000
18.493600 -1.490565 1063.070000
20.513474 2.507765 1063.070000
21.557460 6.811571 1063.070000
23.942375 10.916385 1063.070000
23.688888 15.478841 1063.070000
23.224286 19.975950 1063.070000
23.247850 24.399860 1063.070000
s
-6.346631 24.428601 1269.583885
-6.890843 39.424953 1270.541585
-10.425956 54.899789 1274.973281
-18.437675 69.460926 1282.639641
-31.692686 80.034474 1292.442029
-47.909206 83.552018 1302.488087
-47.909206 83.552018 1302.488087
-69.496504 79.841147 1308.895727
-83.886732 67.034726 1308.243176
-88.409092 47.766905 1309.027218
-90.996328 35.584998 1308.895814
-92.181190 24.515608 1309.167106
-90.261490 12.952776 1308.938217
-88.442661 0.419925 1309.297335
-82.415987 -18.358620 1308.658147
-67.313763 -28.217464 1309.816482
-45.974313 -31.535284 1302.906413
-45.974313 -31.535284 1302.906413
-31.306454 -27.643164 1293.474600
-19.765135 -17.005272 1284.180367
-12.116649 -3.891260 1276.571957
-7.915574 10.106659 1271.599712
-6.346631 24.428601 1269.583885
s
15.106177 24.363637 1310.857357
14.020999 42.190956 1311.460938
7.139335 59.214255 1320.435504
-4.645868 73.809497 1333.564759
-19.602265 82.607708 1344.742738
-36.928403 85.645508 1353.086123
-36.928403 85.645508 1353.086123
-61.712645 79.085321 1360.785724
-77.046607 61.835178 1364.099055
-82.514679 45.630230 1366.435856
-82.437230 36.419127 1368.776255
-83.886929 23.939821 1365.469630
-81.974444 15.564982 1365.370709
-77.467930 6.691777 1364.727971
-70.278275 -2.784183 1363.883107
-58.028512 -13.244407 1360.587893
-34.154813 -24.671597 1348.730332
-34.154813 -24.671597 1348.730332
-20.916513 -21.893733 1343.290936
-8.940144 -14.945185 1337.692394
1.683201 -4.357196 1329.955615
10.085762 8.698380 1319.472821
15.106177 24.363637 1310.857357
s
23.247850 24.399860 1063.070000
23.238598 28.824519 1063.070000
23.473020 33.298190 1063.070000
23.455302 37.806190 1063.070000
23.213236 42.340095 1063.070000
22.329894 46.778662 1063.070000
21.235410 51.181152 1063.070000
18.978204 55.173140 1063.070000
16.843115 59.141966 1063.070000
14.778008 63.106950 1063.070000
13.643359 67.623416 1063.070000
10.444370 76.444502 1063.070000
5.594795 85.595872 1063.070000
0.234067 93.825933 1063.070000
-5.468470 103.976929 1063.070000
-12.081162 112.992625 1063.070000
-21.222587 120.887156 1063.070000
-30.737986 127.200538 1063.070000
-41.935143 133.593535 1063.070000
-53.361895 136.331725 1063.070000
-66.515823 136.778701 1063.070000
-75.880774 135.995462 1063.070000
-86.660489 134.729285 1063.070000
-96.482189 133.021330 1063.070000
-106.927774 129.591991 1063.070000
-115.245208 123.959132 1063.070000
-125.924277 120.373953 1063.070000
-131.327695 111.014017 1063.070000
-140.240665 104.843486 1063.070000
-143.690962 94.863248 1063.070000
-146.566504 84.184195 1063.070000
-149.292549 79.453108 1063.070000
-149.690667 72.452380 1063.070000
-151.373305 66.453523 1063.070000
-152.551944 60.388706 1063.070000
-154.467941 54.708046 1063.070000
-152.733029 48.074772 1063.070000
-151.660324 41.985716 1063.070000
-149.605962 36.040182 1063.070000
-147.210426 30.415068 1063.070000
-142.043121 24.399860 1063.070000
-144.003240 22.231291 1063.070000
-142.047170 19.454358 1063.070000
-144.197827 16.407012 1063.070000
-147.086816 13.091189 1063.070000
-146.533652 10.118052 1063.070000
-149.113605 6.511383 1063.070000
-147.884315 3.586140 1063.070000
-147.698264 0.408699 1063.070000
-148.047863 -2.986656 1063.070000
-149.314198 -7.041260 1063.070000
-147.685547 -18.725761 1063.070000
-145.070079 -31.119859 1063.070000
-139.608322 -43.769075 1063.070000
-133.828287 -56.274316 1063.070000
-123.783417 -66.675678 1063.070000
-113.431201 -75.956602 1063.070000
-100.684301 -81.235299 1063.070000
-86.355063 -84.606621 1063.070000
-72.898760 -87.011696 1063.070000
-58.395071 -86.549529 1063.070000
-47.804948 -84.603955 1063.070000
-36.844152 -81.048973 1063.070000
-27.216147 -74.264279 1063.070000
-18.595382 -69.063160 1063.070000
-10.640129 -61.414981 1063.070000
-3.522438 -53.531937 1063.070000
0.476128 -44.086130 1063.070000
4.256804 -34.527748 1063.070000
8.656886 -26.346099 1063.070000
11.852660 -17.912139 1063.070000
13.731273 -13.773892 1063.070000
15.661896 -9.816334 1063.070000
16.900735 -5.575956 1063.070000
18.493600 -1.490565 1063.070000
20.513474 2.507765 1063.070000
21.557460 6.811571 1063.070000
23.942375 10.916385 1063.070000
23.688888 15.478841 1063.070000
23.224286 19.975950 1063.070000
23.247850 24.399860 1063.070000
s
-62.808478 24.399860 698.595000
-39.555316 24.399860 704.086667
-16.302154 24.399860 709.578333
6.951008 24.399860 715.070000
15.615413 24.399860 723.070000
21.730869 24.399860 731.070000
24.057164 24.399860 738.070000
26.462368 24.399860 746.070000
26.716529 24.399860 754.070000
27.953231 24.399860 761.070000
28.343890 24.399860 769.070000
28.892654 24.399860 777.070000
29.700455 24.399860 784.070000
30.760198 24.399860 797.070000
32.108049 24.399860 810.070000
33.446908 24.399860 823.070000
35.262288 24.399860 836.070000
36.418784 24.399860 849.070000
37.439643 24.399860 862.070000
38.732775 24.399860 875.070000
37.813440 24.399860 888.070000
36.992406 24.399860 901.070000
40.333777 24.399860 914.070000
35.398511 24.399860 922.070000
36.125931 24.399860 930.070000
35.955266 24.399860 938.070000
36.080805 24.399860 947.070000
35.585627 24.399860 955.070000
35.352062 24.399860 963.070000
34.523672 24.399860 972.070000
33.085413 24.399860 980.070000
32.547778 24.399860 988.070000
30.882757 24.399860 997.070000
29.044569 24.399860 1005.070000
27.456127 24.399860 1013.070000
26.500249 24.399860 1021.070000
25.055350 24.399860 1030.070000
23.150657 24.399860 1038.070000
22.836906 24.399860 1046.070000
23.295478 24.399860 1054.070000
23.247850 24.399860 1063.070000
12.433921 24.399860 1158.070000
12.433921 24.399860 1158.070000
12.433921 24.399860 1158.070000
12.433921 24.399860 1158.070000
12.433921 24.399860 1158.070000
12.433921 24.399860 1158.070000
12.433921 24.399860 1158.070000
12.433921 24.399860 1158.070000
11.070373 24.399860 1174.070000
7.867106 24.399860 1189.070000
4.663838 24.399860 1204.070000
0.463303 24.399860 1219.070000
-4.135311 24.399860 1233.070000
-8.860063 24.399860 1247.070000
-6.346631 24.428601 1269.583885
-6.346631 24.428601 1269.583885
-6.346631 24.428601 1269.583885
-6.346631 24.428601 1269.583885
-6.346631 24.428601 1269.583885
-6.346631 24.428601 1269.583885
-1.940081 24.399860 1279.070000
1.376453 24.399860 1287.070000
5.437232 24.399860 1295.070000
8.926208 24.399860 1303.070000
15.106177 24.363637 1310.857357
s
-4.797921 110.773124 698.595000
-5.083518 112.748765 704.086667
-5.369115 114.724407 709.578333
-5.654712 116.700048 715.070000
-6.709648 114.755860 723.070000
-7.256215 113.149108 731.070000
-7.819595 111.685546 738.070000
-8.349524 110.025282 746.070000
-9.398779 108.115309 754.070000
-10.024546 106.597020 761.070000
-10.230121 105.128735 769.070000
-10.081736 103.855099 777.070000
-10.224030 102.579932 784.070000
-8.350586 101.317719 797.070000
-6.372566 100.153536 810.070000
-1.663414 100.456296 823.070000
1.951282 100.134124 836.070000
5.244732 99.616504 849.070000
8.629961 99.186677 862.070000
9.912743 97.606309 875.070000
10.592198 95.780038 888.070000
12.185406 94.402165 901.070000
11.406559 91.783071 914.070000
11.948672 90.704899 922.070000
12.956306 89.872100 930.070000
14.236481 89.183809 938.070000
14.379824 87.686125 947.070000
15.380858 86.887830 955.070000
15.731873 85.717930 963.070000
15.875710 84.254773 972.070000
15.903643 82.907474 980.070000
14.711417 80.923619 988.070000
15.083420 79.598879 997.070000
14.043709 77.679772 1005.070000
14.782293 76.707024 1013.070000
15.019685 75.484637 1021.070000
13.888870 73.348238 1030.070000
13.760840 71.921316 1038.070000
13.058911 70.192060 1046.070000
12.770736 68.680330 1054.070000
13.643359 67.623416 1063.070000
11.819483 92.008366 1156.070000
11.819483 92.008366 1156.070000
11.819483 92.008366 1156.070000
11.819483 92.008366 1156.070000
11.819483 92.008366 1156.070000
11.819483 92.008366 1156.070000
11.819483 92.008366 1156.070000
11.819483 92.008366 1156.070000
9.879221 95.330935 1168.070000
3.628601 100.017112 1183.722139
-2.622020 104.703289 1199.374278
-9.414744 109.703289 1215.128779
-16.213234 113.703289 1229.663022
-24.330131 117.703289 1240.832223
-27.519569 119.703289 1247.996513
-32.572624 121.903301 1257.989297
-40.997267 124.103283 1263.333031
-50.457562 126.303295 1267.649858
-60.927177 128.503277 1271.377353
-71.445363 130.768389 1271.972930
s
-66.181421 168.933444 698.595000
-68.114417 168.558396 704.086667
-70.047412 168.183347 709.578333
-71.980408 167.808299 715.070000
-73.772993 167.153775 723.070000
-74.847648 165.725261 731.070000
-75.500135 166.352418 738.070000
-75.609976 165.371484 746.070000
-75.223472 163.962810 754.070000
-74.617294 163.147861 761.070000
-73.678925 162.737231 769.070000
-72.351508 160.863472 777.070000
-71.229805 161.567083 784.070000
-68.544501 157.896958 797.070000
-65.929588 156.780778 810.070000
-63.402451 153.485439 823.070000
-61.304128 153.258748 836.070000
-59.753928 152.775912 849.070000
-58.963906 151.356570 862.070000
-58.952666 146.173415 875.070000
-59.440829 143.824381 888.070000
-60.344699 140.975295 901.070000
-61.519207 139.341952 914.070000
-62.336579 137.805872 922.070000
-63.239848 139.634350 930.070000
-64.147850 139.234759 938.070000
-65.170393 138.859787 947.070000
-66.005785 137.448830 955.070000
-66.850272 137.557535 963.070000
-67.676389 136.770122 972.070000
-68.254702 135.539158 980.070000
-68.789511 135.465374 988.070000
-69.193693 135.112356 997.070000
-69.499791 136.575538 1005.070000
-69.558634 136.994340 1013.070000
-69.442925 137.439886 1021.070000
-69.056110 136.891799 1030.070000
-68.612260 136.879004 1038.070000
-68.131242 138.403785 1046.070000
-67.467689 138.774345 1054.070000
-66.515823 136.778701 1063.070000
-56.472870 161.462022 1154.070000
-56.472870 161.462022 1154.070000
-56.472870 161.462022 1154.070000
-56.472870 161.462022 1154.070000
-56.472870 161.462022 1154.070000
-56.472870 161.462022 1154.070000
-56.472870 161.462022 1154.070000
-56.472870 161.462022 1154.070000
s
-155.011278 94.122596 698.595000
-157.120139 94.172135 704.086667
-159.229000 94.221675 709.578333
-161.337861 94.271214 715.070000
-166.056240 95.382700 723.070000
-166.975591 95.533664 731.070000
-169.139966 95.991850 738.070000
-172.331247 96.652316 746.070000
-172.825003 96.646629 754.070000
-173.253076 96.637675 761.070000
-173.665674 96.603528 769.070000
-173.490804 96.415173 777.070000
-175.411241 96.959507 784.070000
-171.954056 95.651221 797.070000
-170.061861 94.901814 810.070000
-167.332770 93.959563 823.070000
-163.751340 92.750256 836.070000
-160.455046 91.664768 849.070000
-154.614079 89.842993 862.070000
-146.145485 87.385731 875.070000
-140.722835 85.708690 888.070000
-133.612314 83.497552 901.070000
-128.748803 82.052907 914.070000
-128.570894 81.866834 922.070000
-127.689557 81.515582 930.070000
-125.878996 80.863733 938.070000
-126.968080 80.970168 947.070000
-128.492315 81.261620 955.070000
-131.209970 81.845934 963.070000
-134.164609 82.557660 972.070000
-135.084724 82.523649 980.070000
-137.504462 83.085298 988.070000
-139.056126 83.273135 997.070000
-141.418212 83.830515 1005.070000
-141.676745 83.760574 1013.070000
-141.970369 83.695624 1021.070000
-143.349822 83.869589 1030.070000
-145.034034 84.214633 1038.070000
-144.055891 83.781555 1046.070000
-146.320059 84.274904 1054.070000
-146.566504 84.184195 1063.070000
-150.584465 108.793707 1156.070000
-150.584465 108.793707 1156.070000
-150.584465 108.793707 1156.070000
-150.584465 108.793707 1156.070000
-150.584465 108.793707 1156.070000
-150.584465 108.793707 1156.070000
-150.584465 108.793707 1156.070000
-150.584465 108.793707 1156.070000
-150.074486 110.825682 1164.070000
-148.259727 113.144563 1173.070000
-142.744197 115.703289 1187.450501
-135.439660 119.703289 1204.796231
-128.028408 122.703289 1218.164562
-120.883843 125.703289 1232.862258
-114.655761 128.703289 1245.332476
-109.873704 129.103283 1255.106986
-102.174650 129.503277 1262.602013
-92.198945 129.903301 1266.685601
-82.481089 130.303295 1270.756807
-71.445363 130.768389 1271.972930
s
-62.808478 24.399860 698.595000
-83.969803 24.399860 704.086667
-105.131127 24.399860 709.578333
-126.292452 24.399860 715.070000
-147.433032 24.399860 723.070000
-153.057286 24.399860 731.070000
-155.258019 24.399860 738.070000
-160.076384 24.399860 746.070000
-163.323131 24.399860 754.070000
-165.497028 24.399860 761.070000
-168.896033 24.399860 769.070000
-171.165571 24.399860 777.070000
-170.708127 24.399860 784.070000
-173.168070 24.399860 797.070000
-172.126693 24.399860 810.070000
-167.716927 24.399860 823.070000
-164.319250 24.399860 836.070000
-160.858823 24.399860 849.070000
-162.190308 24.399860 862.070000
-160.657332 24.399860 875.070000
-153.767054 24.399860 888.070000
-144.645004 24.399860 901.070000
-141.032036 24.399860 914.070000
-139.801069 24.399860 922.070000
-138.053027 24.399860 930.070000
-136.004596 24.399860 938.070000
-132.230554 24.399860 947.070000
-131.493631 24.399860 955.070000
-133.175464 24.399860 963.070000
-132.532746 24.399860 972.070000
-133.357449 24.399860 980.070000
-136.142239 24.399860 988.070000
-136.468573 24.399860 997.070000
-137.340557 24.399860 1005.070000
-138.840030 24.399860 1013.070000
-139.193603 24.399860 1021.070000
-140.575090 24.399860 1030.070000
-139.764049 24.399860 1038.070000
-141.337527 24.399860 1046.070000
-142.834557 24.399860 1054.070000
-142.043121 24.399860 1063.070000
-145.294003 24.399860 1158.070000
-145.294003 24.399860 1158.070000
-145.294003 24.399860 1158.070000
-145.294003 24.399860 1158.070000
-145.294003 24.399860 1158.070000
-145.294003 24.399860 1158.070000
-145.294003 24.399860 1158.070000
-145.294003 24.399860 1158.070000
-141.344528 24.399860 1170.070000
-139.253019 24.399860 1180.070000
-137.084067 24.399860 1190.070000
-132.453043 24.399860 1201.070000
-128.942183 24.399860 1213.070000
-126.286029 24.399860 1228.070000
-120.692259 24.399860 1245.648369
-116.059565 24.703289 1254.373236
-111.548757 24.703289 1265.153683
-106.217839 24.703289 1277.306390
-99.977465 24.703289 1292.142771
-92.181190 24.515608 1309.167106
-88.627847 24.399860 1321.070000
-84.901156 24.399860 1332.070000
-82.399373 24.214759 1343.070000
-80.784239 24.228854 1354.070000
-83.886929 23.939821 1365.469630
s
-151.151828 -63.074214 698.595000
-154.180874 -62.873059 704.086667
-157.209920 -62.671904 709.578333
-160.238966 -62.470749 715.070000
-164.276746 -61.310875 723.070000
-167.545184 -60.105205 731.070000
-170.671010 -59.097979 738.070000
-174.028440 -57.975731 746.070000
-175.555318 -56.714633 754.070000
-176.726461 -55.643743 761.070000
-177.694471 -54.391207 769.070000
-178.046970 -53.113865 777.070000
-178.621731 -52.042319 784.070000
-178.213178 -49.968062 797.070000
-177.451239 -47.886343 810.070000
-175.683146 -45.778965 823.070000
-172.720075 -43.670830 836.070000
-168.163429 -41.442025 849.070000
-161.368667 -39.170747 862.070000
-153.580648 -36.949685 875.070000
-146.410400 -34.629245 888.070000
-138.459734 -32.451143 901.070000
-132.008360 -30.122920 914.070000
-129.099420 -28.760847 922.070000
-128.127154 -27.476736 930.070000
-127.961259 -26.216570 938.070000
-127.954760 -25.035762 947.070000
-126.550562 -23.473739 955.070000
-127.496741 -22.166912 963.070000
-128.971470 -20.786124 972.070000
-131.320596 -19.641070 980.070000
-132.184827 -18.242609 988.070000
-135.516415 -17.056811 997.070000
-137.710268 -15.845073 1005.070000
-140.412623 -14.657599 1013.070000
-140.761445 -13.389657 1021.070000
-143.826666 -12.057096 1030.070000
-144.770037 -10.814784 1038.070000
-146.563962 -9.603288 1046.070000
-147.539794 -8.354583 1054.070000
-149.314198 -7.041260 1063.070000
-153.624552 -37.088354 1160.070000
-153.624552 -37.088354 1160.070000
-153.624552 -37.088354 1160.070000
-153.624552 -37.088354 1160.070000
-153.624552 -37.088354 1160.070000
-153.624552 -37.088354 1160.070000
-153.624552 -37.088354 1160.070000
-153.624552 -37.088354 1160.070000
-153.860705 -40.362962 1170.070000
-151.194721 -43.495870 1180.070000
-146.157200 -47.296711 1191.652958
-141.248024 -53.296711 1208.134286
-134.961858 -58.296711 1221.470804
-127.546699 -63.296711 1236.404961
-122.555361 -66.296711 1246.347612
-116.807140 -68.896709 1258.556236
-106.407447 -71.496708 1267.101281
-94.130958 -74.096714 1272.297251
-81.506088 -76.696712 1275.680184
-69.162408 -79.578669 1276.032638
s
-69.138303 -134.453172 698.595000
-69.069042 -133.602526 704.086667
-68.999780 -132.751880 709.578333
-68.930519 -131.901234 715.070000
-68.678291 -131.583158 723.070000
-68.412113 -131.045338 731.070000
-68.124907 -129.487708 738.070000
-67.845836 -128.878637 746.070000
-67.553163 -128.043142 754.070000
-67.291137 -127.304799 761.070000
-66.953747 -125.459116 769.070000
-66.626915 -124.058822 777.070000
-66.365591 -123.556972 784.070000
-65.808061 -120.669991 797.070000
-65.268939 -118.556254 810.070000
-64.739987 -116.959595 823.070000
-64.173480 -114.072048 836.070000
-63.655195 -114.047159 849.070000
-63.128332 -114.693388 862.070000
-62.516466 -108.943810 875.070000
-61.963683 -106.418204 888.070000
-61.426721 -102.878841 901.070000
-60.930176 -100.524821 914.070000
-60.644083 -97.156797 922.070000
-60.387316 -94.312626 930.070000
-60.160481 -90.194175 938.070000
-59.889280 -90.054163 947.070000
-59.675673 -88.702197 955.070000
-59.494180 -86.858256 963.070000
-59.321395 -84.300175 972.070000
-59.191764 -82.127443 980.070000
-59.069219 -81.050696 988.070000
-58.917645 -81.480118 997.070000
-58.800736 -81.931200 1005.070000
-58.707224 -82.418938 1013.070000
-58.627246 -83.377805 1021.070000
-58.550021 -84.437118 1030.070000
-58.496037 -85.346619 1038.070000
-58.480015 -85.019102 1046.070000
-58.440533 -85.728794 1054.070000
-58.395071 -86.549529 1063.070000
-55.245062 -111.737179 1161.070000
-55.245062 -111.737179 1161.070000
-55.245062 -111.737179 1161.070000
-55.245062 -111.737179 1161.070000
-55.245062 -111.737179 1161.070000
-55.245062 -111.737179 1161.070000
-55.245062 -111.737179 1161.070000
-55.245062 -111.737179 1161.070000
s
3.034348 -75.209597 698.595000
2.524918 -75.905440 704.086667
2.015487 -76.601283 709.578333
1.506057 -77.297126 715.070000
0.536407 -75.626888 723.070000
-0.263770 -73.999244 731.070000
-0.858442 -72.601585 738.070000
-2.037713 -70.878682 746.070000
-2.542253 -69.347328 754.070000
-3.080691 -67.946843 761.070000
-3.120566 -66.706690 769.070000
-3.957575 -64.895355 777.070000
-4.371746 -63.416050 784.070000
-3.581559 -61.357405 797.070000
-1.608979 -59.565368 810.070000
-0.021731 -57.654809 823.070000
5.185616 -56.645311 836.070000
7.759160 -54.808650 849.070000
11.454113 -53.609351 862.070000
13.300968 -51.730495 875.070000
14.536491 -49.691946 888.070000
15.540163 -47.660256 901.070000
18.538100 -46.092022 914.070000
15.075615 -43.794257 922.070000
15.520309 -42.475896 930.070000
15.425891 -41.012335 938.070000
15.640587 -39.484505 947.070000
15.397397 -37.991699 955.070000
14.748814 -36.402786 963.070000
14.819295 -34.815006 972.070000
14.096635 -33.264442 980.070000
13.398871 -31.604962 988.070000
13.128881 -29.895941 997.070000
13.365421 -28.564947 1005.070000
13.797463 -27.233761 1013.070000
13.390363 -25.725765 1021.070000
13.096150 -24.039524 1030.070000
11.584660 -22.187385 1038.070000
11.471014 -20.778025 1046.070000
11.204889 -19.279020 1054.070000
11.852660 -17.912139 1063.070000
7.123796 -48.195314 1160.070000
7.123796 -48.195314 1160.070000
7.123796 -48.195314 1160.070000
7.123796 -48.195314 1160.070000
7.123796 -48.195314 1160.070000
7.123796 -48.195314 1160.070000
7.123796 -48.195314 1160.070000
7.123796 -48.195314 1160.070000
2.880833 -53.911073 1179.070000
-3.426193 -59.480109 1198.070000
-9.122975 -63.388410 1212.182561
-14.819758 -67.296711 1226.295122
-20.378244 -70.296711 1235.610657
-26.089646 -72.296711 1243.160383
-29.172248 -74.296711 1249.135864
-33.818017 -75.296711 1257.812797
-41.153755 -76.296711 1262.771613
-49.309350 -77.296711 1267.417580
-58.412895 -78.296711 1271.716102
-69.162408 -79.578669 1276.032638
s
