-21.7998 215.81 584.6
-22.4933 216.395 585.6
-23.1869 216.98 586.6
-24.5941 219.15 587.6
-26.0396 221.404 588.6
-26.6914 222.88 589.6
-27.278 224.293 590.6
-27.2355 224.899 591.6
-27.1115 225.4 592.6
-27.3155 226.323 593.601
-27.5748 227.316 594.601
-27.5101 228.368 595.601
-27.3691 229.434 596.601
-26.1862 227.481 597.601
-24.9421 225.351 598.601
-24.5294 225.492 599.601
-24.3985 226.402 600.601
-23.5467 227.13 601.601
-22.3933 227.781 602.601
-20.9441 226.799 603.601
-19.35 225.016 604.601
-19.8402 225.498 605.601
-21.5123 227.265 606.601
-21.5768 228.464 607.601
-20.5844 229.29 608.601
-20.0822 229.835 609.601
-19.9552 230.163 610.602
-19.9773 230.815 611.602
-20.1319 231.753 612.602
-19.897 232.932 613.602
-19.2751 234.349 614.602
-18.6499 235.31 615.602
-18.021 235.728 616.602
-18.1865 236.19 617.602
-19.4146 236.71 618.602
-19.3089 237.158 619.602
-17.1342 237.495 620.602
-15.8703 238.006 621.602
-16.2462 238.832 622.602
-16.4529 239.781 623.602
-16.3019 240.988 624.602
-16.0278 241.745 625.602
-15.4496 241.393 626.602
-15.5672 242.28 627.602
-16.6924 244.959 628.603
-17.069 246.37 629.603
-14.6395 243.022 630.603
-13.3098 241.002 631.603
-17.1062 245.172 632.603
-20.3751 248.839 633.603
-20.6493 249.643 634.603
-20.9342 250.384 635.603
-21.312 250.569 636.603
-21.5831 250.729 637.603
-20.5395 250.566 638.603
-19.5628 250.421 639.603
-20.1071 250.682 640.603
-20.629 250.929 641.603
-16.8965 248.462 642.603
-13.164 245.996 643.603
-13.8486 247.508 644.603
-14.7059 249.176 645.604
-18.855 243.456 646.604
-23.2347 237.218 647.604
-23.2641 236.031 648.604
-22.7813 235.438 649.604
-22.6233 236.073 650.604
-22.5171 236.903 651.604
-22.3232 237.701 652.604
-22.1103 238.492 653.604
-22.2058 238.838 654.604
-22.3785 239.072 655.604
-22.1195 239.289 656.604
-21.7204 239.502 657.604
-21.7209 239.916 658.604
-21.8752 240.407 659.604
-21.8593 240.863 660.604
-21.766 241.303 661.604
-21.8227 241.764 662.604
-21.9597 242.236 663.605
-21.6384 242.016 664.605
-21.0234 241.352 665.605
-20.9183 242.047 666.605
-21.1859 243.733 667.605
-21.3241 244.488 668.605
-21.3551 244.47 669.605
-21.2785 244.47 670.605
-21.0978 244.49 671.605
-20.9927 244.72 672.605
-20.9351 245.083 673.605
-20.7627 245.164 674.605
-20.5187 245.068 675.605
-20.1566 245.318 676.605
-19.6199 246.078 677.605
-19.576 246.864 678.605
-20.3882 247.698 679.605
-21.1999 248.338 680.606
-22.0105 248.575 681.606
-22.6972 248.659 682.606
-23.0996 248.394 683.606
-23.4823 248.236 684.606
-23.8064 248.395 685.606
-24.1199 248.436 686.606
-24.3974 248.074 687.606
-24.6523 247.772 688.606
-24.8106 247.728 689.606
-24.9929 247.67 690.606
-25.3022 247.541 691.606
-25.5957 247.446 692.606
-25.765 247.612 693.606
-25.9515 247.764 694.606
-26.3222 247.757 695.606
-26.6829 247.753 696.606
-26.8424 247.799 697.607
-27.0025 247.847 698.607
-27.212 247.984 699.607
-27.4215 248.122 700.607
-27.8104 248.208 701.607
-28.2043 248.294 702.607
-28.2941 248.814 703.607
-28.3826 249.341 704.607
-28.7549 249.535 705.607
-29.1271 249.73 706.607
-29.3018 249.929 707.607
-29.447 250.13 708.607
-29.7978 250.144 709.607
-30.19 250.12 710.607
-30.4113 250.457 711.607
-30.5914 250.88 712.607
-30.9431 251.217 713.607
-31.3496 251.527 714.607
-31.6345 251.776 715.608
-31.8748 252.004 716.608
-31.9748 252.19 717.608
-32.0147 252.358 718.608
-32.1907 252.538 719.608
-32.4372 252.723 720.608
-32.6408 253.029 721.608
-32.8186 253.409 722.608
-33.1202 253.761 723.608
-33.5084 254.092 724.608
-33.6703 254.583 725.608
-33.6494 255.205 726.608
-33.7406 255.544 727.608
-33.9368 255.619 728.608
-34.0266 255.894 729.608
-34.0009 256.384 730.608
-34.0449 256.845 731.608
-34.1747 257.268 732.609
-34.2581 257.704 733.609
-34.2741 258.157 734.609
-34.2234 258.501 735.609
-34.0619 258.662 736.609
-33.9973 258.879 737.609
-34.1171 259.202 738.609
-34.198 259.512 739.609
-34.191 259.79 740.609
-34.2751 260.046 741.609
-34.6095 260.241 742.609
-34.8805 260.461 743.609
-34.9493 260.762 744.609
-35.0308 260.994 745.609
-35.164 260.947 746.609
-35.2898 260.907 747.609
-35.3768 260.901 748.609
-35.4808 260.892 749.609
-35.707 260.869 750.61
-35.93 260.903 751.61
-36.1443 261.097 752.61
-36.3507 261.284 753.61
-36.4279 261.368 754.61
-36.5094 261.447 755.61
-36.749 261.368 756.61
-36.9885 261.289 757.61
-37.0271 261.08 758.61
-37.0626 260.869 759.61
-37.3207 260.754 760.61
-37.5896 260.645 761.61
-37.7945 260.777 762.61
-37.993 260.933 763.61
-38.1998 260.579 764.61
-38.4076 260.156 765.61
-38.5668 260.147 766.61
-38.7172 260.212 767.611
-38.8383 260.027 768.611
-38.9526 259.784 769.611
-39.1891 259.438 770.611
-39.4607 259.063 771.611
-39.7116 259.115 772.611
-39.9555 259.314 773.611
-40.2445 259.465 774.611
-40.542 259.607 775.611
-40.6503 259.547 776.611
-40.6645 259.388 777.611
-40.8662 259.043 778.611
-41.1762 258.592 779.611
-41.3382 258.42 780.611
-41.4031 258.429 781.611
-41.649 258.543 782.611
-42.0362 258.738 783.611
-42.3308 258.67 784.612
-42.5425 258.37 785.612
-42.6893 258.164 786.612
-42.7706 258.054 787.612
-42.8938 257.932 788.612
-43.0631 257.799 789.612
-43.2251 257.833 790.612
-43.3771 258.105 791.612
-43.626 258.163 792.612
-44.0265 257.889 793.612
-44.2935 257.802 794.612
-44.3112 258.065 795.612
-44.4038 258.074 796.612
-44.6628 257.519 797.612
-44.8796 257.164 798.612
-44.9866 257.326 799.612
-45.1193 257.414 800.612
-45.3284 257.283 801.612
-45.5403 257.237 802.613
-45.7632 257.511 803.613
-45.9708 257.749 804.613
-46.1097 257.832 805.613
-46.2691 257.859 806.613
-46.5576 257.534 807.613
-46.8202 257.239 808.613
-46.8692 257.194 809.613
-46.9354 257.164 810.613
-47.2768 257.354 811.613
-47.6107 257.537 812.613
-47.7516 257.504 813.613
-47.8926 257.471 814.613
-48.2019 257.311 815.613
-48.5116 257.151 816.613
-48.5995 257.132 817.613
-48.679 257.119 818.613
-48.8538 256.983 819.614
-49.0363 256.838 820.614
-49.3551 256.903 821.614
-49.6897 256.993 822.614
-49.9018 257.081 823.614
-50.093 257.17 824.614
-50.4069 257.022 825.614
-50.7484 256.822 826.614
-50.8673 256.665 827.614
-50.9245 256.519 828.614
-51.2528 256.355 829.614
-51.6065 256.189 830.614
-51.7949 256.271 831.614
-51.9161 256.455 832.614
-52.2016 256.445 833.614
-52.5643 256.344 834.614
-52.7973 256.213 835.614
-52.959 256.066 836.615
-53.1558 255.917 837.615
-53.3749 255.766 838.615
-53.6342 255.535 839.615
-53.924 255.243 840.615
-54.1428 255.098 841.615
-54.3017 255.077 842.615
-54.5824 255.01 843.615
-54.9842 254.898 844.615
-55.2157 254.787 845.615
-55.2545 254.676 846.615
-55.3851 254.46 847.615
-55.6393 254.1 848.615
-55.8389 253.82 849.615
-55.9591 253.654 850.615
-56.126 253.547 851.615
-56.3771 253.544 852.615
-56.6151 253.484 853.616
-56.8262 253.307 854.616
-57.0032 253.16 855.616
-57.0951 253.088 856.616
-57.1994 252.987 857.616
-57.3391 252.805 858.616
-57.483 252.627 859.616
-57.6413 252.467 860.616
-57.8371 252.293 861.616
-58.1929 252.062 862.616
-58.491 251.879 863.616
-58.47 251.962 864.616
-58.461 252.024 865.616
-58.545 251.924 866.616
-58.6324 251.801 867.616
-58.7627 251.41 868.616
-58.8855 251.045 869.616
-58.8741 251.162 870.617
-58.8635 251.279 871.617
-59.0907 251.175 872.617
-59.318 251.071 873.617
-59.3554 250.938 874.617
-59.3987 250.785 875.617
-59.5632 250.433 876.617
-59.7276 250.081 877.617
-59.5987 250.228 878.617
-59.4401 250.426 879.617
-59.6107 250.234 880.617
-59.835 249.979 881.617
-59.9847 249.76 882.617
-60.1195 249.548 883.617
-60.1765 249.417 884.617
-60.2141 249.306 885.617
-60.2095 249.123 886.617
-60.2005 248.932 887.617
-60.2122 248.721 888.618
-60.2267 248.507 889.618
-60.3967 248.3 890.618
-60.6351 248.096 891.618
-60.7092 248.093 892.618
-60.6973 248.196 893.618
-60.7928 248.078 894.618
-60.9522 247.829 895.618
-61.0322 247.599 896.618
-61.0557 247.381 897.618
-61.1466 247.153 898.618
-61.2914 246.915 899.618
-61.421 246.795 900.618
-61.5364 246.788 901.618
-61.7005 246.702 902.618
-61.9174 246.533 903.618
-62.1451 246.341 904.618
-62.3867 246.122 905.619
-62.4772 246.011 906.619
-62.4578 245.978 907.619
-62.5358 245.871 908.619
-62.7807 245.635 909.619
-62.99 245.449 910.619
-63.1312 245.36 911.619
-63.3291 245.265 912.619
-63.6581 245.155 913.619
-63.9174 245.063 914.619
-63.9896 245.019 915.619
-64.1161 244.911 916.619
-64.4211 244.594 917.619
-64.704 244.326 918.619
-64.9008 244.251 919.619
-65.1132 244.175 920.619
-65.4084 244.086 921.619
-65.7109 243.994 922.62
-66.0636 243.879 923.62
-66.3968 243.777 924.62
-66.5349 243.802 925.62
-66.6816 243.809 926.62
-66.9585 243.529 927.62
-67.2344 243.25 928.62
-67.4541 243.113 929.62
-67.6739 242.975 930.62
-68.061 242.779 931.62
-68.45 242.581 932.62
-68.7576 242.417 933.62
-69.0613 242.255 934.62
-69.36 242.174 935.62
-69.6582 242.101 936.62
-69.8447 241.904 937.62
-70.0155 241.69 938.62
-70.2518 241.518 939.62
-70.4999 241.353 940.621
-70.8745 241.192 941.621
-71.2787 241.03 942.621
-71.5778 240.985 943.621
-71.8463 240.974 944.621
-72.1738 240.752 945.621
-72.522 240.455 946.621
-72.7795 240.191 947.621
-73.0001 239.94 948.621
-73.2415 239.682 949.621
-73.4933 239.421 950.621
-73.8099 239.259 951.621
-74.1629 239.153 952.621
-74.4361 239.027 953.621
-74.6846 238.895 954.621
-74.968 238.632 955.621
-75.2778 238.27 956.621
-75.4587 238.038 957.622
-75.5222 237.926 958.622
-75.7123 237.643 959.622
-76.0313 237.186 960.622
-76.2378 236.922 961.622
-76.311 236.888 962.622
-76.4655 236.756 963.622
-76.7303 236.491 964.622
-76.8788 236.275 965.622
-76.8446 236.133 966.622
-76.8477 235.888 967.622
-76.9166 235.459 968.622
-76.966 235.137 969.622
-76.9728 235.051 970.622
-76.9693 234.888 971.622
-76.9397 234.531 972.622
-76.9385 234.189 973.622
-77.0238 233.891 974.622
-77.044 233.607 975.623
-76.8269 233.367 976.623
-76.6435 233.089 977.623
-76.6212 232.625 978.623
-76.58 232.195 979.623
-76.4301 231.96 980.623
-76.2993 231.715 981.623
-76.32 231.388 982.623
-76.3232 231.082 983.623
-76.15 230.986 984.623
-75.9788 230.881 985.623
-75.8643 230.502 986.623
-75.7499 230.122 987.623
-75.6452 229.621 988.623
-75.5405 229.119 989.623
-75.3455 228.923 990.623
-75.1475 228.737 991.623
-75.1019 228.432 992.624
-75.0676 228.118 993.624
-74.8888 227.836 994.624
-74.6936 227.558 995.624
-74.6033 227.067 996.624
-74.5292 226.542 997.624
-74.3028 226.229 998.624
-74.0451 225.959 999.624
-73.9069 225.56 1000.62
-73.8 225.128 1001.62
-73.7036 224.852 1002.62
-73.6104 224.624 1003.62
-73.4677 224.361 1004.62
-73.3061 224.085 1005.62
-73.1551 223.721 1006.62
-73.0088 223.316 1007.62
-72.7936 222.959 1008.62
-72.5421 222.628 1009.62
-72.3817 222.209 1010.62
-72.2761 221.736 1011.62
-72.1576 221.405 1012.62
-72.0298 221.174 1013.62
-71.9258 220.837 1014.62
-71.8416 220.412 1015.62
-71.692 220.05 1016.62
-71.4831 219.746 1017.63
-71.329 219.36 1018.63
-71.2356 218.884 1019.63
-71.1637 218.493 1020.63
-71.1186 218.209 1021.63
-71.056 217.908 1022.63
-70.9678 217.583 1023.63
-70.8895 217.269 1024.63
-70.828 216.973 1025.63
-70.7466 216.639 1026.63
-70.6258 216.227 1027.63
-70.526 215.791 1028.63
-70.4739 215.297 1029.63
-70.4278 214.925 1030.63
-70.3895 214.711 1031.63
-70.3515 214.458 1032.63
-70.3144 214.081 1033.63
-70.2893 213.687 1034.63
-70.313 213.229 1035.63
-70.297 212.794 1036.63
-70.0813 212.472 1037.63
-69.8873 212.179 1038.63
-69.8427 212.088 1039.63
-69.8063 211.947 1040.63
-69.8475 211.345 1041.63
-69.8895 210.749 1042.63
-69.9465 210.263 1043.63
-69.9989 209.787 1044.63
-69.9319 209.578 1045.63
-69.8649 209.368 1046.63
-69.7421 209.222 1047.63
-69.6185 209.077 1048.63
-69.5368 208.587 1049.63
-69.457 208.082 1050.63
-69.4497 207.815 1051.63
-69.449 207.569 1052.63
-69.4344 207.303 1053.63
-69.4181 207.034 1054.63
-69.3526 206.747 1055.63
-69.2783 206.457 1056.63
-69.272 205.917 1057.63
-69.2809 205.321 1058.63
-69.2125 205.033 1059.63
-69.122 204.833 1060.63
-69.1104 204.533 1061.63
-69.1254 204.198 1062.63
-69.1076 203.906 1063.63
-69.0763 203.631 1064.63
-69.0612 203.422 1065.63
-69.054 203.244 1066.63
-69.0071 202.982 1067.63
-68.9378 202.673 1068.63
-68.8461 202.38 1069.63
-68.7393 202.097 1070.63
-68.7197 201.751 1071.63
-68.7665 201.357 1072.63
-68.7779 201.107 1073.63
-68.7589 200.981 1074.63
-68.7744 200.727 1075.63
-68.8259 200.338 1076.63
-68.7575 199.992 1077.63
-68.6119 199.671 1078.63
-68.5194 199.312 1079.63
-68.4978 198.902 1080.63
-68.4494 198.63 1081.63
-68.3608 198.568 1082.63
-68.2896 198.464 1083.63
-68.251 198.281 1084.63
-68.2003 198.073 1085.63
-68.1247 197.813 1086.63
-68.0396 197.515 1087.63
-67.9315 197.12 1088.63
-67.8386 196.802 1089.63
-67.7919 196.712 1090.63
-67.7095 196.574 1091.63
-67.4997 196.267 1092.63
-67.3234 195.98 1093.63
-67.2903 195.785 1094.63
-67.2448 195.617 1095.63
-67.128 195.603 1096.63
-67.021 195.573 1097.63
-66.9936 195.414 1098.63
-66.9539 195.238 1099.63
-66.7718 194.863 1100.63
-66.5917 194.49 1101.63
-66.4581 194.186 1102.63
-66.3245 193.881 1103.63
