-8.670651 24.703289 1264.706635
-8.712259 26.258068 1265.142197
-8.512424 27.819302 1265.564327
-8.887897 29.386822 1265.970738
-8.502455 30.960476 1266.361306
-9.204825 32.540081 1266.730996
-8.667414 34.125485 1267.077607
-7.979155 35.716488 1267.394592
-9.018571 37.312939 1267.672848
-8.276266 38.914669 1267.619578
-9.762837 40.521496 1266.633908
-8.986482 42.133267 1266.709978
-9.012526 43.749783 1266.846914
-9.305235 45.370922 1266.719000
-9.740775 46.996472 1266.300788
-10.796751 48.626278 1265.124763
-11.557452 50.260159 1264.365369
-11.874313 51.897961 1263.698820
-12.676916 53.539517 1263.087094
-13.773696 55.184643 1261.458722
-13.895407 56.833187 1261.108258
-14.917165 58.484951 1260.015057
-15.455220 60.139782 1259.424503
-15.529366 61.797512 1259.158965
-16.571076 63.457974 1257.966741
-16.940091 65.120983 1257.623358
-17.209487 66.786389 1257.085761
-17.547938 68.453991 1256.917152
-17.840674 70.123654 1256.469620
-17.928262 71.795193 1256.370472
-18.145160 73.468441 1256.326365
-18.148072 75.143215 1256.260668
-18.253802 76.819378 1256.223111
-18.397687 78.496716 1256.165954
-18.506187 80.175091 1256.098800
-18.765269 81.854321 1255.866610
-18.926778 83.534237 1255.802065
-19.067079 85.214672 1255.719627
-19.229394 86.895443 1255.620142
-19.471147 88.576412 1255.401885
-19.718206 90.257366 1255.208692
-20.048841 91.938183 1254.933111
-20.470689 93.618649 1254.405347
-21.091450 95.298611 1253.936220
-21.775487 96.977917 1252.831029
-22.571569 98.656368 1251.996730
-23.556178 100.333813 1250.829894
-24.187878 102.010067 1250.019741
-25.293702 103.684979 1249.047135
-25.458442 105.358364 1249.032221
-26.072023 107.030071 1247.951788
-26.907126 108.699902 1247.857877
-26.847814 110.367703 1247.930503
-26.477868 112.033306 1248.019089
-27.104332 113.696545 1247.485487
-27.248922 115.357220 1247.576366
-27.463265 117.015209 1247.616284
-28.050156 118.670300 1247.696310
-27.995995 120.322369 1247.974501
-27.689902 121.971173 1248.131648
-28.292738 123.616619 1247.733176
-28.462942 125.258496 1247.852987
-28.540306 126.896649 1248.051564
-28.672112 128.530895 1248.237195
-28.860023 130.161053 1248.449118
-28.999114 131.786999 1248.659082
-29.383947 133.408520 1248.868264
-29.684677 135.025463 1248.578254
-30.025301 136.637676 1248.983712
-30.124367 138.244946 1249.171467
-30.324419 139.847119 1249.212998
-30.638937 141.444042 1249.472336
-30.867691 143.035534 1249.719064
-31.358709 144.621441 1249.421935
-31.705483 146.201580 1249.620830
-31.922784 147.775768 1249.921276
-32.251337 149.343853 1250.159807
-32.858590 150.905651 1249.819189
-33.336969 152.461010 1250.092814
-33.591350 154.009716 1250.231175
-34.286786 155.551678 1250.075306
-34.495710 157.086651 1250.345621
-35.317952 158.614514 1250.029812
-35.680751 160.135082 1249.971452
-36.406764 161.648174 1249.898926
-36.771863 163.153607 1249.904468
-37.453508 164.651257 1249.875494
-38.054274 166.140942 1249.482931
-38.586308 167.622448 1249.208657
-39.259800 169.095654 1249.143880
-39.870514 170.560375 1249.118549
-40.583531 172.016430 1249.066181
-41.316352 173.463635 1248.746330
-42.083510 174.901867 1248.074778
-42.960957 176.330944 1247.039212
-43.690057 177.750652 1246.779363
-44.184087 179.160870 1247.257953
-45.070540 180.561413 1247.165230
-45.754114 181.952130 1246.377615
-46.582437 183.332806 1245.521909
-49.538250 -132.296711 1246.808103
-47.883649 -131.073758 1251.436237
-47.116434 -129.839067 1251.315072
-46.333174 -128.592783 1251.469290
-45.563129 -127.335050 1251.763785
-44.527482 -126.066013 1252.350422
-43.722185 -124.785818 1252.326045
-42.910706 -123.494608 1252.662797
-42.137482 -122.192528 1252.754576
-41.518060 -120.879722 1252.715368
-40.764892 -119.556337 1252.624253
-40.062256 -118.222517 1252.677878
-39.478233 -116.878404 1252.654227
-38.772200 -115.524147 1252.667586
-38.043862 -114.159885 1252.899133
-37.396654 -112.785770 1252.924702
-37.019373 -111.401941 1252.633774
-36.395128 -110.008545 1252.642415
-35.872379 -108.605724 1252.558521
-35.414021 -107.193630 1252.233842
-34.958232 -105.772400 1252.155631
-34.564310 -104.342178 1252.118437
-34.108259 -102.903114 1251.836544
-33.479279 -101.455353 1252.036557
-33.153181 -99.999039 1251.803009
-32.841219 -98.534309 1251.528203
-32.463441 -97.061317 1251.228171
-32.097041 -95.580208 1251.414945
-31.693592 -94.091118 1251.242518
-31.606681 -92.594200 1250.975739
-31.244261 -91.089596 1250.698192
-31.037386 -89.577450 1250.445299
-30.835991 -88.057903 1250.212286
-30.699437 -86.531109 1250.030099
-30.127317 -84.997204 1250.311291
-29.957587 -83.456337 1250.065050
-29.858388 -81.908653 1249.859326
-29.784447 -80.354297 1249.650385
-29.516083 -78.793411 1249.470846
-29.319401 -77.226139 1249.283066
-29.390299 -75.652630 1249.105134
-29.125127 -74.073025 1248.930139
-29.118059 -72.487469 1248.769439
-28.901419 -70.896107 1248.623162
-28.840944 -69.299091 1248.469451
-28.667630 -67.696552 1248.344864
-28.616160 -66.088650 1248.211013
-28.689414 -64.475513 1248.099496
-28.468724 -62.857296 1248.010413
-28.225663 -61.234150 1248.024786
-27.947856 -59.606205 1248.435372
-27.778572 -57.973614 1248.373200
-27.711234 -56.336513 1248.365751
-27.544252 -54.695064 1248.426794
-27.354010 -53.049396 1248.450021
-27.172579 -51.399662 1249.096323
-26.589447 -49.745998 1249.836861
-25.789723 -48.088558 1250.688473
-25.272854 -46.427486 1252.110787
-23.345743 -44.762928 1254.054134
-22.543582 -43.095012 1255.064206
-22.136763 -41.423908 1255.657317
-21.776461 -39.749744 1256.119439
-21.391009 -38.072666 1256.552163
-21.214110 -36.392826 1256.731905
-20.892881 -34.710361 1257.017131
-20.694744 -33.025417 1257.239956
-20.555327 -31.338138 1257.362110
-20.404848 -29.648678 1257.442649
-20.268537 -27.957172 1257.504588
-20.138660 -26.263775 1257.563311
-20.138456 -24.568615 1257.954353
-19.764003 -22.871853 1258.035206
-19.568554 -21.173618 1258.072485
-19.602023 -19.474071 1258.130558
-19.376540 -17.773350 1258.215915
-18.785251 -16.071598 1258.925361
-18.744109 -14.368954 1259.260953
-18.379199 -12.665577 1259.369441
-17.792382 -10.961597 1259.714053
-16.912730 -9.257175 1260.857280
-16.799825 -7.552433 1261.005597
-15.998644 -5.847538 1261.823645
-15.193324 -4.142628 1262.702043
-14.803269 -2.437839 1264.097872
-14.079511 -0.733326 1265.134980
-12.445785 0.970761 1266.413406
-11.516361 2.674298 1267.682823
-11.006006 4.377117 1268.133658
-9.585385 6.079098 1269.284944
-9.249687 7.780087 1269.105512
-9.881440 9.479916 1269.842719
-8.985427 11.178478 1269.620262
-8.002293 12.875607 1269.661386
-8.122454 14.571148 1269.325367
-7.794000 16.264980 1268.943820
-8.184147 17.956951 1268.440987
-9.374397 19.646908 1267.630348
-8.794725 21.334713 1266.737234
-8.544042 23.020230 1265.764565
