-138.688627 24.399860 1183.070000
-138.688216 23.723534 1183.046349
-138.082932 23.057670 1183.023064
-138.268880 22.381450 1182.999413
-138.260198 21.708472 1182.975914
-138.412638 21.028200 1182.952172
-138.290108 20.359158 1182.928704
-138.451772 19.674262 1182.904839
-138.457052 18.996746 1182.881249
-138.885683 18.284993 1182.856102
-138.881537 17.602638 1182.832299
-139.035957 16.904044 1182.808342
-139.445504 16.174763 1182.782341
-139.599754 15.466075 1182.757531
-139.380569 14.799134 1182.734215
-139.483435 14.092193 1182.709618
-139.437298 13.402769 1182.685692
-139.555293 12.687929 1182.660637
-139.599119 11.980906 1182.635887
-139.419959 11.308476 1182.611931
-139.358312 10.616489 1182.587303
-139.613832 9.864664 1182.563225
-140.437946 8.995412 1182.531853
-140.527417 8.258263 1182.506371
-140.432045 7.556216 1182.481499
-140.849310 6.739579 1182.452751
-140.985646 5.977337 1182.425774
-141.046626 5.227724 1182.398735
-141.325325 4.419613 1182.371239
-141.191232 3.709859 1182.346215
-141.485781 2.884384 1182.317467
-141.763399 2.054583 1182.289147
-142.073625 1.206548 1182.258934
-142.360651 0.355701 1182.230004
-142.147738 -0.351731 1182.205101
-141.829965 -1.026160 1182.180962
-141.643933 -1.741554 1182.156273
-142.997845 -2.973019 1182.113213
-143.053368 -3.788326 1182.084587
-143.269302 -4.666323 1182.053826
-143.004570 -5.378597 1182.028893
-142.797785 -6.112440 1182.003716
-143.211453 -7.085636 1181.969261
-143.511639 -8.027917 1181.935784
-143.226707 -8.745552 1181.910607
-143.389016 -9.648529 1181.881371
-144.549800 -10.984729 1181.834130
-144.361021 -11.764393 1181.804985
-143.944639 -12.445354 1181.783165
-144.787674 -13.698281 1181.737786
-144.694973 -14.539646 1181.706017
-144.799071 -15.480130 1181.677910
-144.899249 -16.428389 1181.643242
-145.404106 -17.588276 1181.611870
-146.767712 -19.204706 1181.548516
-146.397378 -19.956849 1181.517357
-147.254056 -21.361778 1181.460625
-146.518945 -21.930556 1181.451439
-148.049412 -23.747690 1181.386864
-147.042881 -24.173966 1181.369866
-147.744456 -25.572994 1181.321007
-148.266164 -26.892549 1181.278466
-148.920557 -28.314618 1181.227593
-149.309424 -29.600446 1181.180992
-149.540743 -30.808478 1181.139397
-150.495619 -32.494774 1181.081078
-150.489339 -33.592502 1181.042839
-150.446030 -34.678124 1181.005211
-151.580919 -36.570304 1180.938530
-151.639899 -37.765366 1180.896721
-151.545284 -38.868338 1180.858116
-151.834475 -40.256977 1180.810021
-151.614003 -41.297798 1180.773186
-151.402366 -42.354569 1180.734612
-151.172345 -43.407504 1180.698479
-151.191796 -44.661766 1180.656670
-151.220656 -45.940631 1180.613060
-150.568747 -46.696054 1180.585625
-150.574205 -47.982906 1180.539513
-150.073210 -48.870684 1180.506432
-149.868163 -50.010849 1180.467522
-149.351420 -50.898017 1180.439171
-149.059456 -51.984820 1180.399987
-148.567456 -52.906127 1180.368859
-148.222343 -53.965374 1180.330468
-147.596894 -54.778448 1180.302849
-147.067214 -55.682932 1180.271172
-146.834761 -56.874995 1180.228630
-146.232679 -57.725931 1180.199059
-145.574564 -58.525668 1180.171227
-145.157322 -59.568528 1180.134758
-144.770916 -60.653783 1180.096825
-144.222836 -61.584263 1180.064202
-143.668467 -62.515433 1180.031761
-143.118085 -63.458399 1179.998864
-142.675508 -64.527131 1179.961449
-141.955176 -65.300140 1179.935143
-141.786018 -66.698572 1179.885063
-141.081367 -67.505872 1179.857140
-140.549638 -68.519587 1179.820671
-139.787719 -69.270525 1179.796074
-139.377380 -70.450311 1179.757592
-138.763086 -71.396241 1179.721672
-138.039059 -72.213989 1179.692925
-137.574979 -73.369820 1179.655114
-137.125406 -74.562478 1179.608452
-136.462878 -75.492038 1179.576409
-136.170864 -76.932403 1179.526879
-135.342082 -77.663192 1179.501610
-134.475825 -78.344573 1179.476708
-133.926579 -79.480264 1179.433953
-133.424894 -80.704115 1179.393547
-133.058082 -82.150535 1179.342736
-132.233469 -82.936725 1179.319329
-131.494658 -83.861463 1179.285332
-130.925109 -85.064009 1179.244286
-130.128361 -85.926286 1179.212853
-129.487285 -87.052921 1179.173821
-128.764269 -88.064384 1179.138268
-128.245740 -89.440008 1179.090294
-127.413841 -90.305044 1179.060173
-126.655076 -91.311155 1179.024803
-126.048041 -92.609067 1178.979851
-125.411527 -93.883443 1178.934777
-124.439962 -94.558024 1178.912651
-123.843099 -95.957671 1178.864525
-122.956411 -96.825639 1178.833763
-122.238455 -98.046537 1178.789513
-121.389949 -99.030514 1178.757469
-120.573808 -100.103119 1178.719841
-119.928500 -101.567546 1178.665184
-119.114197 -102.705531 1178.626671
-118.108590 -103.443781 1178.606469
-117.081438 -104.144099 1178.575615
-116.512104 -105.933362 1178.518425
-115.550064 -106.839519 1178.482994
-114.623576 -107.855521 1178.445092
-113.882440 -109.370399 1178.393730
-112.785650 -110.014182 1178.370781
-112.054367 -111.645921 1178.313866
-111.072097 -112.653004 1178.278679
-110.312977 -114.322160 1178.220238
-109.366320 -115.517429 1178.178459
-108.474475 -116.921727 1178.129753
-107.267605 -117.415708 1178.113945
-106.621044 -119.692386 1178.032708
-105.530470 -120.634772 1178.000695
-104.263769 -121.018347 1177.987511
-103.051977 -121.593921 1179.070000
-101.355636 -120.436590 1179.070000
-100.090186 -120.781592 1180.070000
-98.838813 -121.181422 1180.070000
-97.566959 -121.504432 1181.070000
-96.096065 -120.998805 1181.070000
-94.663077 -120.592584 1181.070000
-93.466275 -121.193817 1182.070000
-92.117023 -121.105362 1182.070000
-90.697678 -120.640249 1183.070000
-89.204682 -119.728670 1183.070000
-87.750045 -118.911074 1183.070000
-86.561174 -119.493265 1184.070000
-86.022177 -123.997750 1184.070000
-83.897448 -118.976058 1185.070000
-82.645409 -119.168766 1185.070000
-81.403463 -119.433992 1185.070000
-80.724818 -123.989915 1186.070000
-79.400359 -123.920298 1186.070000
-77.513171 -118.876131 1187.070000
-76.084144 -117.318595 1187.070000
-74.775333 -116.700289 1187.070000
-74.130619 -123.524279 1188.070000
-72.820728 -123.396103 1188.070000
-71.051772 -116.645304 1189.070000
-69.811928 -116.584851 1189.070000
-68.550050 -116.058606 1189.070000
-67.655343 -123.705271 1190.070000
-66.354845 -123.532492 1190.070000
-64.874979 -116.364519 1191.070000
-63.634058 -115.681229 1191.070000
-62.406970 -115.173266 1191.070000
-61.188934 -123.079770 1192.070000
-59.903978 -122.841505 1192.070000
-58.774263 -113.936524 1193.070000
-57.545001 -114.756308 1193.070000
-56.330789 -114.719210 1193.070000
-54.781227 -122.360750 1194.070000
-53.512856 -122.068433 1194.070000
-52.693572 -114.498071 1195.070000
-51.342485 -116.410917 1195.070000
-49.678896 -121.849036 1196.070000
-48.422211 -121.524444 1196.070000
-47.170314 -121.189074 1196.070000
-46.421859 -116.099477 1197.070000
-45.202435 -115.911840 1197.070000
-43.368211 -120.738283 1198.070000
-42.131650 -120.354579 1198.070000
-40.900427 -119.960364 1198.070000
-40.438001 -114.447874 1199.070000
-39.171796 -114.610876 1199.070000
-37.154072 -119.226810 1200.070000
-35.940035 -118.793759 1200.070000
-34.731723 -118.350474 1200.070000
-34.214684 -114.370628 1201.070000
-32.914942 -114.571250 1201.070000
-30.963530 -117.799486 1202.070000
-29.770103 -117.321330 1202.070000
-28.534564 -117.041756 1202.070000
-27.248852 -116.970756 1203.070000
-25.993558 -116.761084 1203.070000
-24.786764 -116.356889 1204.070000
-23.616389 -115.822786 1204.070000
-22.510958 -115.068416 1204.070000
-21.300583 -114.707351 1205.070000
-20.364839 -113.419974 1205.070000
-18.945669 -113.771635 1206.070000
-17.803649 -113.200685 1206.070000
-16.668372 -112.620341 1206.070000
-15.781992 -111.307184 1207.070000
-14.548044 -111.055121 1207.070000
-13.149700 -111.258752 1208.070000
-11.968427 -110.832372 1208.070000
-10.951664 -109.965822 1207.837975
-10.579073 -107.443336 1207.458214
-10.228765 -104.970066 1207.103203
-9.973607 -102.362521 1206.728142
-10.093130 -98.956324 1206.143700
-10.115660 -95.921233 1205.776207
-10.107934 -93.078398 1205.250328
-10.520508 -89.403287 1204.808739
-10.359219 -87.135770 1204.424767
-10.381428 -84.557189 1204.097954
-9.978627 -82.964781 1203.855553
-9.672439 -81.224608 1203.598442
-9.681036 -78.909002 1203.254174
-9.227756 -77.579694 1203.072991
-8.947042 -75.955881 1202.821678
-8.927895 -73.888859 1202.540886
-8.428289 -72.773160 1202.363335
-7.674767 -72.142252 1202.268120
-7.742516 -70.066365 1201.965203
-7.073400 -69.330995 1201.870049
-6.812963 -67.912221 1201.627678
-6.487826 -66.638071 1201.450951
-6.193088 -65.345204 1201.268608
-6.011761 -63.902076 1201.060021
-5.579681 -62.889183 1200.913384
-5.104358 -61.962813 1200.787590
-4.550860 -61.170936 1200.654381
-4.219306 -60.061087 1200.459191
-4.216054 -58.496195 1200.262688
-3.844344 -57.496703 1200.119347
-3.519695 -56.449432 1199.966973
-3.442665 -55.081061 1199.766533
-3.092571 -54.112869 1199.637749
-2.664742 -53.264366 1199.462883
-2.580626 -51.979974 1199.298668
-2.647500 -50.529759 1199.094628
-2.454216 -49.439801 1198.932549
-2.128318 -48.533927 1198.805626
-1.973664 -47.434007 1198.629998
-1.608302 -46.605573 1198.505608
-1.396811 -45.607721 1198.376030
-1.330217 -44.459717 1198.196617
-0.992276 -43.640084 1198.079949
-0.721860 -42.755629 1197.954155
-0.631140 -41.687376 1197.787285
-0.683701 -40.484059 1197.606682
-0.517418 -39.534578 1197.494408
-0.592028 -38.350074 1197.293022
-0.269620 -37.592084 1197.186394
-0.260951 -36.528123 1197.032280
-0.151082 -35.581870 1196.893883
0.085083 -34.771770 1196.774010
0.213547 -33.868919 1196.635735
0.286868 -32.927253 1196.514794
0.569009 -32.190869 1196.395836
0.766689 -31.385233 1196.283898
0.566509 -30.236741 1196.107811
0.881791 -29.557398 1196.009484
1.031068 -28.741042 1195.883538
0.918895 -27.714797 1195.737053
0.855320 -26.745477 1195.601097
1.169071 -26.096657 1195.514275
1.490672 -25.457750 1195.399559
1.799719 -24.812269 1195.319481
1.400107 -23.626401 1195.134758
1.445489 -22.798564 1195.012993
1.695732 -22.132345 1194.912804
1.743887 -21.323511 1194.795372
1.646652 -20.420328 1194.661583
1.646129 -19.597725 1194.524773
1.729106 -18.842511 1194.428948
2.086474 -18.279942 1194.347985
2.427701 -17.707072 1194.263512
2.684372 -17.079950 1194.172295
2.859087 -16.403229 1194.072899
2.899960 -15.647326 1193.959587
2.940666 -14.898810 1193.847374
3.295289 -14.346170 1193.762200
3.295298 -13.584256 1193.653557
3.574322 -12.991224 1193.561608
3.660209 -12.290020 1193.463738
3.952944 -11.708873 1193.377068
3.829261 -10.902140 1193.262535
4.051853 -10.289282 1193.174828
3.979637 -9.524751 1193.060906
4.227696 -8.931578 1192.975151
4.231414 -8.217523 1192.869713
4.396560 -7.588323 1192.780236
4.272583 -6.823682 1192.666069
4.554133 -6.256636 1192.580834
4.550969 -5.559540 1192.474785
4.799121 -4.979915 1192.395775
4.760482 -4.275763 1192.286156
5.006774 -3.698551 1192.202233
4.976524 -3.006770 1192.101616
5.197981 -2.422195 1192.016594
5.200723 -1.751722 1191.919274
5.224824 -1.093993 1191.820916
5.352601 -0.479001 1191.733635
5.518220 0.120441 1191.642449
5.664870 0.725686 1191.557366
5.779475 1.340787 1191.462181
5.808302 1.982898 1191.366722
5.867759 2.611819 1191.274590
6.011099 3.211771 1191.186455
6.135234 3.816796 1191.097924
6.268926 4.417931 1191.009972
6.338023 5.036816 1190.919609
6.520452 5.622385 1190.833672
6.538259 6.252413 1190.739037
6.570572 6.876060 1190.642571
6.773865 7.454831 1190.556053
7.020718 8.024171 1190.481987
7.137679 8.625418 1190.391686
7.240620 9.229393 1190.301873
7.273083 9.847809 1190.210320
7.406491 10.443963 1190.122917
7.490093 11.050009 1190.034050
7.583307 11.653678 1189.945305
7.552022 12.278974 1189.853478
7.581906 12.891568 1189.763298
7.689393 13.490604 1189.675408
7.721378 14.101144 1189.585594
7.891523 14.691235 1189.498986
7.857658 15.309703 1189.406823
7.807506 15.928162 1189.316338
7.697585 16.551232 1189.224694
7.790288 17.149851 1189.136406
7.954106 17.742142 1189.049523
8.032183 18.343797 1188.960930
8.122281 18.944949 1188.872582
8.189616 19.548439 1188.783654
8.225486 20.154292 1188.694756
8.244038 20.761032 1188.605248
8.275757 21.366966 1188.516259
8.062250 21.981555 1188.425774
8.090239 22.585721 1188.336876
8.115651 23.190144 1188.247979
8.150073 23.794747 1188.159020
8.198225 24.399860 1188.070000
8.123733 25.004742 1188.023430
8.281790 25.612476 1187.976647
8.280717 26.218986 1187.929955
8.452329 26.831786 1187.882744
8.244487 27.431388 1187.836602
8.160749 28.034322 1187.790093
8.160099 28.641428 1187.743248
8.289959 29.258297 1187.695366
8.428308 29.878855 1187.647911
8.360327 30.484632 1187.601219
8.520976 31.112160 1187.553337
8.489232 31.723330 1187.506066
8.518868 32.342060 1187.458824
8.515340 32.958468 1187.411492
8.461178 33.569471 1187.364312
8.383241 34.177591 1187.317437
8.289134 34.783426 1187.270470
8.283778 35.403256 1187.222863
8.630691 36.083658 1187.170494
8.598748 36.705311 1187.122765
8.680158 37.349330 1187.073052
8.675280 37.980087 1187.024559
8.977675 38.675418 1186.970757
8.780147 39.272247 1186.924828
8.778350 39.911233 1186.875054
8.705064 40.536160 1186.827324
8.787197 41.199642 1186.776421
8.715788 41.829064 1186.728569
8.697020 42.473596 1186.678276
8.574036 43.092791 1186.631157
8.421349 43.704500 1186.583885
8.556747 44.399112 1186.533196
8.241978 44.966233 1186.485558
8.292681 45.642521 1186.435387
8.351697 46.325936 1186.382286
8.137150 46.925270 1186.336174
8.281033 47.644185 1186.280937
8.095560 48.256424 1186.234062
8.455949 49.062406 1186.171288
8.135257 49.631802 1186.127587
8.574744 50.483430 1186.061821
8.001577 50.959608 1186.024926
8.054434 51.675548 1185.971062
7.638183 52.207820 1185.929711
8.100044 53.100294 1185.860039
7.840300 53.701031 1185.816124
8.073194 54.515890 1185.753533
7.793277 55.112718 1185.708306
7.638056 55.766126 1185.657433
7.691468 56.519319 1185.595970
7.649037 57.233887 1185.542534
7.682166 57.990539 1185.483147
7.820595 58.806741 1185.419945
7.675899 59.488244 1185.368370
7.469799 60.141334 1185.319786
7.233001 60.780448 1185.270470
7.345365 61.610948 1185.204186
7.125862 62.267369 1185.155297
7.236712 63.113227 1185.089379
7.324789 63.956276 1185.024742
7.308763 64.748087 1184.962761
7.080861 65.420491 1184.913933
7.188963 66.301889 1184.841881
6.957872 66.982710 1184.791527
7.100911 67.905289 1184.721825
7.067596 68.726169 1184.659020
7.018437 69.545333 1184.590111
6.638732 70.150198 1184.541527
6.699401 71.058219 1184.469261
6.941480 72.105289 1184.393975
6.840349 72.924675 1184.330498
6.721574 73.739731 1184.273217
6.782848 74.696332 1184.197350
6.554421 75.448139 1184.139489
6.474374 76.319742 1184.072777
6.740866 77.472436 1183.984062
6.510606 78.250505 1183.923302
6.409251 79.139791 1183.854943
6.301737 80.034875 1183.784508
6.142314 80.897485 1183.720848
6.055451 81.831990 1183.652855
6.531741 83.268544 1183.539055
6.790899 84.543335 1183.440270
6.472089 85.322118 1183.383202
6.311194 86.252331 1183.310082
6.194881 87.236284 1183.236290
6.499348 88.633641 1183.125054
6.497152 89.763553 1183.037316
6.171738 90.595007 1182.975426
6.427366 92.016160 1182.861290
6.353535 93.131575 1182.788781
6.670665 94.670532 1182.654869
6.138934 95.348628 1182.598259
6.075149 96.531758 1182.523217
6.195891 97.937492 1182.416802
6.180228 99.220894 1182.306603
5.924457 100.257748 1182.231102
5.934649 101.616709 1182.125145
5.793559 102.826282 1182.032067
5.772056 104.200860 1181.926384
5.687769 105.527788 1181.826714
5.529088 106.789755 1181.729851
5.453246 108.180562 1181.624962
5.396571 109.625419 1181.527184
5.042028 110.713730 1181.426476
4.858130 112.047273 1181.319481
4.409561 113.051137 1181.243553
4.251505 114.470896 1181.135033
3.904470 115.657446 1181.044091
3.758660 117.154636 1180.932030
3.597370 118.664516 1180.811425
3.247758 119.931184 1180.711052
2.747019 120.996547 1180.637566
2.343057 122.230547 1180.549645
2.278132 124.023197 1180.405632
1.639882 124.946983 1180.330162
1.690685 127.010072 1180.168907
1.179112 128.197719 1180.078881
0.457868 129.055361 1180.012139
-0.169558 130.088518 1179.931847
-0.542708 131.591702 1179.820183
-0.639127 133.634603 1179.671837
-1.233816 134.823449 1179.568047
-1.743913 136.199683 1179.460717
-2.446898 137.242261 1179.383934
-2.676517 139.236943 1179.231438
-3.229294 140.648912 1179.121270
-3.720684 142.227233 1178.999535
-4.569589 143.104785 1178.932549
-4.828109 145.266038 1178.769402
-5.241248 147.165852 1178.626549
-5.642633 149.158895 1178.469200
-6.233505 150.788693 1178.338982
-6.938314 152.206310 1178.233208
-7.771285 153.361471 1178.070000
-8.649706 154.439011 1178.070000
-9.740288 155.009855 1178.070000
-10.976238 155.208404 1178.070000
-12.183786 155.470081 1178.070000
-13.448408 155.565877 1178.070000
-14.481418 156.297816 1178.070000
-15.697837 156.515598 1178.070000
-16.740469 157.242317 1178.070000
-18.119590 156.953671 1177.070000
-19.200114 157.571382 1177.070000
-20.378568 157.884551 1177.070000
-21.434959 158.607030 1177.070000
-22.570626 159.077905 1177.070000
-23.747369 159.409781 1177.070000
-24.912010 159.787183 1177.070000
-26.196845 159.704228 1177.070000
-27.288842 160.365703 1177.070000
-27.963966 162.791810 1176.070000
-29.137133 163.231460 1176.070000
-30.315446 163.661163 1176.070000
-31.498820 164.080861 1176.070000
-32.687171 164.490499 1176.070000
-33.880413 164.890022 1176.070000
-35.078459 165.279376 1176.070000
-36.281223 165.658508 1176.070000
-37.488618 166.027364 1176.070000
-39.822960 159.299307 1175.070000
-40.868697 160.365741 1175.070000
-42.055981 160.537890 1175.070000
-43.154383 161.385871 1175.070000
-44.330620 161.699807 1175.070000
-45.529415 161.841694 1175.070000
-46.793399 161.364228 1175.070000
-48.028642 161.074720 1175.070000
-49.221841 161.184360 1175.070000
-49.835512 168.658766 1174.070000
-51.084070 168.906146 1174.070000
-52.336082 169.142710 1174.070000
-53.591454 169.368415 1174.070000
-54.850091 169.583221 1174.070000
-56.111900 169.787089 1174.070000
-57.376784 169.979978 1174.070000
-58.644649 170.161851 1174.070000
-59.915397 170.332671 1174.070000
-61.188934 170.492401 1174.070000
-62.377033 160.542582 1173.070000
-63.571399 160.891183 1173.070000
-64.803083 162.418665 1173.070000
-66.007372 162.381871 1173.070000
-67.244347 163.091615 1173.070000
-68.438914 162.737714 1173.070000
-69.758946 164.518314 1173.070000
-70.981368 164.438192 1173.070000
-72.203045 164.347406 1173.070000
-74.020066 171.060376 1172.070000
-75.315541 171.110283 1172.070000
-76.612862 171.148736 1172.070000
-77.911929 171.175707 1172.070000
-79.212640 171.191168 1172.070000
-80.514893 171.195092 1172.070000
-81.106373 166.119801 1172.070000
-82.286813 165.569064 1172.070000
-83.517928 165.379578 1172.070000
-84.716353 164.994174 1171.070000
-86.030128 165.281271 1171.070000
-87.336236 165.478077 1171.070000
-88.715134 166.009881 1171.070000
-90.075181 166.380301 1171.070000
-91.313079 166.122818 1171.070000
-92.635326 166.245369 1171.070000
-93.963957 166.364084 1171.070000
-95.344991 166.670075 1171.070000
-96.775913 167.131438 1170.070000
-98.176438 167.419927 1170.070000
-99.666500 168.000093 1170.070000
-101.097318 168.304845 1170.070000
-102.394975 168.102403 1170.070000
-103.796160 168.239445 1170.070000
-105.023748 167.777075 1170.070000
-106.348640 167.628150 1170.070000
-107.475312 166.854685 1170.070000
-108.595509 166.083179 1169.405327
-109.636464 165.101704 1169.514580
-110.248294 162.939219 1169.684838
-111.243565 161.923829 1169.807701
-112.292693 161.083071 1169.886589
-113.111770 159.663472 1170.026482
-114.157741 158.869010 1170.104241
-115.101184 157.837362 1170.203972
-116.012546 156.755769 1170.307885
-116.962838 155.794944 1170.399468
-117.881681 154.784253 1170.509545
-118.842307 153.891455 1170.585167
-119.816378 153.046044 1170.675621
-120.529203 151.655477 1170.801812
-121.410512 150.657024 1170.902153
-122.267213 149.628890 1170.994042
-123.208192 148.791247 1171.075341
-123.988937 147.651806 1171.187279
-124.601028 146.213359 1171.324639
-125.395272 145.154420 1171.420037
-126.206141 144.146659 1171.529747
-127.073259 143.258328 1171.608391
-128.073345 142.617656 1171.669976
-128.821856 141.543518 1171.781517
-129.498277 140.366112 1171.890526
-130.206248 139.263960 1171.996239
-131.091591 138.470629 1172.070488
-132.085810 137.858578 1172.130669
-131.830647 135.285138 1172.378502
-132.647015 134.435656 1172.470024
-133.766987 134.053336 1172.496422
-134.713558 133.404597 1172.558983
-135.052145 131.871499 1172.715966
-135.928900 131.139593 1172.779473
-136.365662 129.793745 1172.912041
-137.263807 129.107940 1172.976189
-137.586446 127.645172 1173.114769
-138.324879 126.762716 1173.201165
-139.056023 125.878225 1173.288414
-139.789812 125.004396 1173.372094
-140.225379 123.762288 1173.472832
-140.853720 122.777678 1173.590477
-141.453283 121.768301 1173.679711
-142.236142 120.988161 1173.746239
-142.774975 119.924841 1173.861687
-142.939255 118.442846 1174.000084
-143.759067 117.728417 1174.070610
-144.679068 117.125048 1174.128777
-145.401558 116.301812 1174.201165
-144.849440 114.114769 1174.423210
-145.612224 113.363445 1174.497185
-146.563771 112.808091 1174.538903
-147.241094 111.967174 1174.615807
-147.771050 110.981976 1174.720787
-148.202841 109.908188 1174.823876
-148.597755 108.809577 1174.935204
-148.988798 107.718819 1175.034386
-149.690420 106.928830 1175.111260
-149.994821 105.775462 1175.225334
-150.556065 104.866386 1175.312706
-150.795978 103.677475 1175.424858
-151.113487 102.570081 1175.517723
-151.750104 101.746406 1175.596093
-152.046665 100.638548 1175.715844
-152.839600 99.950838 1175.785698
-152.921660 98.683557 1175.912804
-153.431748 97.773107 1175.994408
-153.277810 96.347575 1176.133110
-153.023801 94.867232 1176.279503
-152.806405 93.438576 1176.422966
-152.804013 92.191452 1176.531670
-153.032721 91.128277 1176.634056
-153.431777 90.196040 1176.722161
-153.248108 88.860387 1176.856133
-152.855164 87.400314 1176.994133
-152.990304 86.320666 1177.098870
-152.514643 84.847028 1177.234062
-152.214635 83.512641 1177.375847
-151.388876 81.863560 1177.538170
-151.644343 80.922673 1177.632592
-152.023015 80.063056 1177.700341
-152.023721 78.978906 1177.809319
-150.270642 76.872996 1178.009606
-150.235891 75.811144 1178.111290
-149.381744 74.296951 1178.261071
-148.540007 72.819350 1178.402611
-148.648109 71.886317 1178.488121
-148.596306 70.875184 1178.585747
-148.276366 69.734708 1178.695793
-148.204931 68.736725 1178.795555
-147.550455 67.458126 1178.921929
-147.009562 66.257377 1179.032769
-147.458993 65.548567 1179.101799
-146.734282 64.290311 1179.220909
-146.064328 63.079805 1179.338860
-145.985438 62.153696 1179.429772
-146.325890 61.418462 1179.502129
-146.038147 60.416214 1179.597313
-145.496705 59.321282 1179.708214
-145.547766 58.483040 1179.780999
-145.993690 57.805341 1179.848473
-145.681509 56.833520 1179.941338
-145.189157 55.806256 1180.041039
-144.454784 54.706150 1180.145531
-145.541889 54.270808 1180.189965
-145.264331 53.349340 1180.278435
-145.427954 52.585842 1180.351128
-144.951001 51.615805 1180.454338
-144.299115 50.604399 1180.538811
-144.032268 49.727608 1180.625969
-143.818148 48.875748 1180.711876
-143.550835 48.016755 1180.796349
-143.263004 47.161014 1180.875908
-143.339442 46.412022 1180.950249
-142.939481 45.541989 1181.032067
-143.536995 44.931537 1181.089623
-143.378856 44.131914 1181.165215
-142.939591 43.273486 1181.248528
-142.694859 42.469288 1181.325615
-141.609364 41.493750 1181.422692
-142.167775 40.875191 1181.477562
-141.766056 40.062466 1181.559960
-141.516590 39.287711 1181.633385
-141.353951 38.535115 1181.705834
-141.292074 37.804528 1181.776726
-141.285217 37.085865 1181.845970
-141.245967 36.364463 1181.916802
-139.784900 35.445802 1182.005760
-139.663668 34.731254 1182.073784
-139.545330 34.020815 1182.142418
-139.373952 33.307917 1182.211266
-139.440467 32.624427 1182.277245
-139.448374 31.935387 1182.343468
-139.322501 31.235661 1182.410942
-139.347925 30.551106 1182.477227
-139.368321 29.866695 1182.543236
-139.467821 29.187601 1182.609093
-138.863233 28.470597 1182.676964
-138.895058 27.792582 1182.742546
-138.807854 27.110372 1182.808556
-138.954886 26.436233 1182.873711
-138.813000 25.754793 1182.939324
-138.798762 25.077150 1183.004692
