-43.3781  115.16  30.9991
-28.3039  119.972  30.9991
-13.231  124.806  30.9991
1.84426  129.606  30.9991
16.9171  134.435  30.9991
31.7441  139.944  30.9991
46.1185  146.54  30.9991
60.6768  152.769  30.9991
72.6633  162.684  30.9991
79.5637  176.728  30.9991
75.0032  190.92  30.9991
68.0222  204.161  30.9991
57.1464  214.069  30.9991
43.5204  220.228  30.9991
29.1722  225.278  30.9991
14.6533  227.751  30.9991
-0.0488384  225.93  30.9991
-14.8741  223.15  30.9991
-29.3587  219.566  30.9991
-42.9094  213.162  30.9991
-57.7353  205.877  30.9991
-72.4662  198.406  30.9991
-87.0561  190.661  30.9991
-101.617  182.863  30.9991
-116.174  175.053  30.9991
-130.72  167.225  30.9991
-145.052  159.037  30.9991
-158.239  149.086  30.9991
-167.651  135.765  30.9991
-171.134  119.669  30.9991
-165.018  104.904  30.9991
-151.801  95.1661  30.9991
-136.989  88.6641  30.9991
-121.834  89.2486  30.9991
-105.983  95.5344  30.9991
-90.386  100.072  30.9991
-74.7204  105.073  30.9991
-59.0361  110.208  30.9991
s
-52.0423  111.43  36.3506
-35.8748  116.868  36.3506
-19.7312  122.336  36.3506
-3.55347  127.763  36.3506
12.618  133.181  36.3506
28.5618  139.1  36.3506
44.1505  146.155  36.3506
59.2724  153.782  36.3506
72.5304  164.404  36.3506
80.4252  178.894  36.3506
72.6835  192.028  36.3506
61.3103  202.441  36.3506
48.8307  211.481  36.3506
35.2915  218.723  36.3506
21.0431  224.689  36.3506
6.22945  227.287  36.3506
-8.95626  224.775  36.3506
-23.81  220.476  36.3506
-38.005  214.837  36.3506
-51.9553  208.106  36.3506
-65.5983  201.604  36.3506
-79.0276  194.673  36.3506
-92.336  187.506  36.3506
-105.656  180.368  36.3506
-118.956  173.184  36.3506
-132.292  166.069  36.3506
-145.378  158.537  36.3506
-157.307  149.277  36.3506
-166.942  137.735  36.3506
-171.819  123.57  36.3506
-168.583  108.046  36.3506
-156.732  98.2109  36.3506
-142.663  90.0161  36.3506
-128.208  87.2688  36.3506
-112.74  91.8912  36.3506
-97.5219  96.551  36.3506
-82.3751  101.396  36.3506
-67.185  106.492  36.3506
s
-59.0627  107.899  52.4053
-48.1094  112.627  52.4053
-37.1306  117.333  52.4053
-26.175  122.059  52.4053
-15.2509  126.813  52.4053
-4.1877  131.442  52.4053
6.62556  136.296  52.4053
17.7786  140.84  52.4053
27.6089  146.692  52.4053
30.4075  158.14  52.4053
25.8561  167.947  52.4053
19.1714  176.535  52.4053
11.9103  184.709  52.4053
3.66686  191.656  52.4053
-6.2781  196.098  52.4053
-16.7279  199.386  52.4053
-27.1657  200.528  52.4053
-37.8284  197.745  52.4053
-48.2456  194.665  52.4053
-58.543  191.007  52.4053
-70.7975  185.774  52.4053
-83.0523  180.541  52.4053
-95.2905  175.284  52.4053
-107.573  170.096  52.4053
-119.656  164.498  52.4053
-131.316  158.072  52.4053
-142.572  150.928  52.4053
-153.167  142.882  52.4053
-162.927  133.802  52.4053
-169.382  122.363  52.4053
-165.506  108.843  52.4053
-154.707  99.9238  52.4053
-141.661  93.6092  52.4053
-127.891  90.7891  52.4053
-113.733  91.8759  52.4053
-99.4806  94.0777  52.4053
-85.4737  96.6553  52.4053
-72.2441  102.228  52.4053
s
-85.8849  94.1798  73.8115
-78.162  97.532  73.8115
-71.1313  102.412  73.8115
-64.1105  107.284  73.8115
-57.0565  112.12  73.8115
-50.0347  116.993  73.8115
-43.3108  122.249  73.8115
-36.9583  127.976  73.8115
-30.5652  133.652  73.8115
-24.2961  139.442  73.8115
-24.7851  147.63  73.8115
-28.3409  154.414  73.8115
-33.5555  160.818  73.8115
-39.1868  166.289  73.8115
-46.3292  168.802  73.8115
-54.4054  169.66  73.8115
-62.505  170.012  73.8115
-70.389  169.872  73.8115
-78.4457  168.595  73.8115
-86.3979  167.652  73.8115
-96.0079  166.431  73.8115
-105.581  165.081  73.8115
-114.62  161.83  73.8115
-123.325  157.619  73.8115
-131.728  152.793  73.8115
-139.555  147.122  73.8115
-146.429  140.339  73.8115
-152.668  132.909  73.8115
-157.638  124.672  73.8115
-160.085  115.356  73.8115
-155.455  107.753  73.8115
-148.157  102.259  73.8115
-139.804  98.7374  73.8115
-130.979  96.0426  73.8115
-122.262  93.5103  73.8115
-113.13  92.6825  73.8115
-103.977  92.0236  73.8115
-94.8913  92.4153  73.8115
s
-101.181  90.174  95.2176
-93.9296  89.8939  95.2176
-86.8705  91.43  95.2176
-80.9008  95.4727  95.2176
-75.7631  100.652  95.2176
-70.5692  105.698  95.2176
-65.2057  110.717  95.2176
-61.6053  116.825  95.2176
-59.7807  123.873  95.2176
-58.2037  130.973  95.2176
-59.055  136.611  95.2176
-61.2667  141.921  95.2176
-64.5324  146.65  95.2176
-68.8528  150.212  95.2176
-73.9088  152.947  95.2176
-79.2474  155.211  95.2176
-84.6044  157.175  95.2176
-90.1589  158.641  95.2176
-95.8626  159.301  95.2176
-101.601  159.641  95.2176
-109.322  160.354  95.2176
-116.647  158.939  95.2176
-123.557  155.535  95.2176
-129.948  151.292  95.2176
-135.123  145.678  95.2176
-139.474  139.301  95.2176
-143.631  132.855  95.2176
-147.812  126.402  95.2176
-151.673  119.747  95.2176
-153.924  112.472  95.2176
-151.527  106.405  95.2176
-146.326  102.226  95.2176
-140.155  99.6275  95.2176
-133.863  97.1947  95.2176
-127.645  94.6334  95.2176
-121.179  92.9293  95.2176
-114.513  92.0129  95.2176
-107.844  91.1069  95.2176
s
-101.516  94.1216  116.624
-95.5451  93.8583  116.624
-89.6033  94.5631  116.624
-84.0043  96.6446  116.624
-79.3089  100.267  116.624
-74.976  104.43  116.624
-70.8714  108.694  116.624
-68.7899  114.249  116.624
-67.1063  120.011  116.624
-66.3873  125.953  116.624
-66.7007  131.218  116.624
-67.915  136.311  116.624
-70.1098  141.105  116.624
-73.0744  145.439  116.624
-76.8806  149.047  116.624
-81.0948  152.232  116.624
-85.565  154.979  116.624
-90.4715  156.878  116.624
-95.6292  157.911  116.624
-100.867  158.461  116.624
-107.866  157.866  116.624
-114.863  156.569  116.624
-121.447  154.2  116.624
-127.332  150.371  116.624
-132.21  145.272  116.624
-135.933  139.296  116.624
-139.367  133.099  116.624
-142.994  127.019  116.624
-146.607  120.923  116.624
-149.372  114.458  116.624
-148.094  108.395  116.624
-143.733  104.092  116.624
-138.01  101.556  116.624
-132.122  99.3491  116.624
-126.317  96.9049  116.624
-120.329  95.2266  116.624
-114.075  94.779  116.624
-107.787  94.4937  116.624
s
