-48.4673 235.421 822.614
-48.4653 235.411 822.614
-48.4625 235.398 822.614
-48.4584 235.379 822.614
-48.4508 235.342 822.614
-48.4304 235.245 822.614
-57.8836 280.12 822.614
-57.8832 280.118 822.614
-57.8828 280.116 822.614
-57.8824 280.115 822.614
-57.882 280.113 822.614
-57.8816 280.111 822.614
-57.8812 280.109 822.614
-48.6351 235.329 824.591
-48.5203 235.223 823.614
-48.5227 235.234 823.614
-48.5217 235.23 823.614
-48.5203 235.223 823.614
-48.5181 235.213 823.614
-48.5256 235.248 823.614
-48.5253 235.247 823.614
-58.0651 280.532 823.614
-58.065 280.532 823.614
-58.0648 280.531 823.614
-58.0647 280.53 823.614
-58.0645 280.529 823.614
-58.0644 280.529 823.614
-58.0642 280.528 823.614
-48.6373 235.329 824.614
-48.6367 235.326 824.614
-48.638 235.332 824.614
-48.6373 235.329 824.614
-48.6363 235.324 824.614
-48.6343 235.315 824.614
-48.6292 235.291 824.614
-58.184 280.647 824.614
-58.1839 280.647 824.614
-58.1839 280.647 824.614
-58.1839 280.647 824.614
-58.1839 280.647 824.614
-58.1839 280.647 824.614
-58.1839 280.647 824.614
-48.6445 234.914 825.614
-48.6437 234.91 825.614
-48.6428 234.905 825.614
-48.6416 234.9 825.614
-48.64 234.892 825.614
-48.6463 234.922 825.614
-48.646 234.921 825.614
-48.6457 234.919 825.614
-58.3253 280.868 825.614
-58.325 280.867 825.614
-58.3168 280.828 825.614
-58.3185 280.836 825.614
-58.3194 280.84 825.614
-58.3199 280.843 825.614
-58.3201 280.844 825.614
-48.6963 234.71 826.614
-48.7002 234.729 826.614
-48.6987 234.722 826.614
-48.6968 234.713 826.614
-48.6943 234.7 826.614
-48.6904 234.682 826.614
-48.7038 234.746 826.614
-48.7033 234.743 826.614
-58.3964 280.757 826.614
-58.3958 280.754 826.614
-58.3953 280.751 826.614
-58.3947 280.748 826.614
-58.3941 280.746 826.614
-58.3859 280.707 826.614
-58.4475 280.589 827.525
-48.7036 234.295 827.614
-48.7027 234.291 827.614
-48.7017 234.286 827.614
-48.7005 234.28 827.614
-48.7059 234.306 827.614
-48.7055 234.304 827.614
-48.7052 234.303 827.614
-48.7048 234.301 827.614
-58.4616 280.616 827.614
-58.4611 280.614 827.614
-58.4606 280.612 827.614
-58.4602 280.61 827.614
-58.4597 280.608 827.614
-58.4592 280.605 827.614
-58.4534 280.578 827.614
-48.7673 234.148 828.614
-48.7665 234.144 828.614
-48.7654 234.139 828.614
-48.7641 234.133 828.614
-48.7623 234.124 828.614
-48.7693 234.158 828.614
-48.769 234.156 828.614
-48.7686 234.154 828.614
-58.5251 280.468 828.614
-58.5246 280.466 828.614
-58.5241 280.464 828.614
-58.6018 280.384 829.612
-58.6018 280.384 829.613
-58.6018 280.384 829.613
-58.6018 280.384 829.613
-48.8397 233.594 830.611
-48.8397 233.594 830.611
-48.8396 233.594 830.61
-48.8396 233.594 830.609
-48.8361 234.025 829.614
-48.8355 234.022 829.614
-48.8349 234.02 829.614
-48.8344 234.017 829.614
-58.6019 280.384 829.614
-58.6019 280.384 829.614
-58.6019 280.384 829.614
-58.6019 280.384 829.614
-58.6019 280.384 829.614
-58.6019 280.384 829.614
-48.8399 233.594 830.614
-48.8399 233.594 830.614
-48.8399 233.594 830.614
-48.8398 233.594 830.614
-48.8402 233.595 830.614
-48.8404 233.596 830.614
-48.8398 233.593 830.614
-58.6789 280.3 830.614
-58.6786 280.298 830.614
-58.6784 280.297 830.614
-58.6781 280.296 830.614
-58.6778 280.295 830.614
-58.6775 280.293 830.614
-58.6773 280.292 830.614
-48.8402 233.594 830.617
-48.8402 233.594 830.617
-48.9568 233.699 831.614
-48.9562 233.696 831.614
-48.9556 233.693 831.614
-48.955 233.691 831.614
-48.9544 233.688 831.614
-48.9538 233.685 831.614
-58.7954 280.403 831.614
-58.7952 280.402 831.614
-58.7951 280.402 831.614
-58.7949 280.401 831.614
-58.7948 280.4 831.614
-58.7947 280.4 831.614
-58.7945 280.399 831.614
-49.1817 233.891 833.563
-49.1807 233.89 833.555
-49.1794 233.888 833.544
-49.1776 233.887 833.529
-49.0888 233.876 832.614
-49.0881 233.873 832.614
-49.0875 233.87 832.614
-49.0869 233.867 832.614
-58.9792 280.826 832.614
-58.9842 280.85 832.614
-58.9857 280.857 832.614
-58.9864 280.86 832.614
-58.9867 280.862 832.614
-58.9869 280.863 832.614
-58.987 280.863 832.614
-49.1866 233.891 833.614
-49.1864 233.89 833.614
-49.1861 233.889 833.614
-49.1858 233.887 833.614
-49.1855 233.886 833.614
-49.1852 233.885 833.614
-49.185 233.883 833.614
-49.1847 233.882 833.614
-59.0927 280.915 833.614
-59.0921 280.913 833.614
-59.0915 280.91 833.614
-59.1777 280.882 834.587
-59.1786 280.883 834.593
-59.1791 280.884 834.597
-59.1794 280.884 834.6
-49.3374 233.724 835.579
-49.3369 233.723 835.574
-49.3362 233.723 835.567
-49.2683 233.83 834.614
-49.2678 233.827 834.614
-49.2673 233.825 834.614
-49.2669 233.823 834.614
-49.2664 233.82 834.614
-59.182 280.89 834.614
-59.182 280.89 834.614
-59.1819 280.889 834.614
-59.1818 280.889 834.614
-59.1817 280.889 834.614
-59.1807 280.884 834.614
-59.1808 280.884 834.614
-49.3374 233.708 835.614
-49.3395 233.718 835.614
-49.3393 233.717 835.614
-49.3391 233.716 835.614
-49.3389 233.715 835.614
-49.3387 233.714 835.614
-49.3385 233.713 835.614
-59.2752 280.883 835.614
-59.2967 280.985 835.614
-59.3033 281.017 835.614
-59.3064 281.031 835.614
-59.308 281.039 835.614
-59.183 280.887 834.631
-59.1828 280.887 834.628
-49.3398 233.704 835.65
-49.3397 233.7 835.655
-49.3479 233.308 836.615
-49.3472 233.305 836.615
-49.3465 233.301 836.615
-49.3458 233.298 836.615
-49.3451 233.295 836.615
-49.3444 233.291 836.615
-59.3876 280.967 836.615
-59.3873 280.965 836.615
-59.3869 280.963 836.615
-59.3791 280.926 836.615
-59.452 280.841 837.575
-59.4527 280.841 837.582
-59.4532 280.841 837.587
-49.3594 232.913 837.615
-49.3596 232.914 837.615
-49.36 232.916 837.615
-49.3609 232.92 837.615
-49.3624 232.927 837.615
-49.3652 232.941 837.615
-49.3517 232.877 837.615
-49.3513 232.875 837.615
-59.4578 280.851 837.615
-59.4577 280.85 837.615
-59.4575 280.849 837.615
-59.4574 280.848 837.615
-59.4572 280.848 837.615
-59.4571 280.847 837.615
-49.3615 232.474 838.615
-49.3617 232.474 838.615
-49.362 232.476 838.615
-49.3625 232.478 838.615
-49.3635 232.483 838.615
-49.3656 232.493 838.615
-49.3726 232.526 838.615
-59.5894 281.026 838.615
-59.5633 280.902 838.615
-59.5711 280.939 838.615
-59.6325 280.828 839.511
-59.6349 280.829 839.534
-59.6363 280.829 839.549
-59.6372 280.828 839.559
-49.3949 231.739 840.602
-49.3949 231.74 840.6
-49.3949 231.741 840.597
-49.4144 232.275 839.615
-49.4138 232.273 839.615
-49.4133 232.27 839.615
-49.4128 232.268 839.615
-49.4122 232.265 839.615
-59.6457 280.844 839.615
-59.6454 280.842 839.615
-59.6451 280.841 839.615
-59.6392 280.813 839.615
-59.6401 280.817 839.615
-59.6405 280.819 839.615
-59.6408 280.82 839.615
-49.3946 231.732 840.615
-49.3945 231.731 840.615
-49.3944 231.731 840.615
-49.3944 231.731 840.615
-49.3943 231.73 840.615
-49.3942 231.73 840.615
-49.3941 231.73 840.615
-59.7518 280.898 840.615
-59.7512 280.895 840.615
-59.7505 280.892 840.615
-59.7499 280.888 840.615
-59.7492 280.885 840.615
-59.8708 281.05 841.532
-59.8676 281.03 841.544
-49.3955 231.73 840.63
-49.4673 231.627 841.615
-49.4667 231.625 841.615
-49.4662 231.622 841.615
-49.4656 231.619 841.615
-49.465 231.617 841.615
-49.4645 231.614 841.615
-59.8838 281.075 841.615
-59.8834 281.073 841.615
-59.883 281.071 841.615
-59.8826 281.069 841.615
-59.8765 281.04 841.615
-59.8771 281.043 841.615
-59.8774 281.044 841.615
-49.5855 231.297 843.599
-49.5854 231.298 843.596
-49.5852 231.299 843.592
-49.5067 231.365 842.615
-49.5092 231.377 842.615
-49.5146 231.402 842.615
-49.5316 231.483 842.615
-59.9771 281.068 842.615
-59.9768 281.067 842.615
-59.9766 281.066 842.615
-59.9763 281.064 842.615
-59.976 281.063 842.615
-59.9758 281.062 842.615
-49.586 231.292 843.615
-49.5859 231.291 843.615
-49.5871 231.297 843.615
-49.5873 231.298 843.615
-49.5878 231.3 843.615
-49.5888 231.305 843.615
-49.5855 231.29 843.615
-60.1273 281.332 843.615
-60.0991 281.198 843.615
-60.1075 281.238 843.615
-60.2586 281.535 844.549
-60.2616 281.542 844.564
-60.2633 281.547 844.574
-60.2645 281.549 844.58
-49.6727 231.254 844.615
-49.6725 231.253 844.615
-49.6722 231.252 844.615
-49.6719 231.251 844.615
-49.6717 231.249 844.615
-49.6714 231.248 844.615
-49.6712 231.247 844.615
-60.2729 281.573 844.615
-60.2661 281.541 844.615
-60.2681 281.551 844.615
-60.2657 281.539 844.615
-60.2668 281.545 844.615
-60.2675 281.548 844.615
-49.7588 230.767 846.607
-49.7587 230.768 846.606
-49.7587 230.768 846.604
-49.7586 230.769 846.601
-49.7585 230.771 846.596
-49.7103 230.983 845.615
-49.6895 230.884 845.615
-49.6888 230.881 845.615
-60.3506 281.493 845.615
-60.3498 281.489 845.615
-60.349 281.485 845.615
-60.3348 281.418 845.615
-60.3367 281.427 845.615
-60.2729 281.555 844.656
-60.2726 281.557 844.649
-49.7593 230.766 846.615
-49.7594 230.767 846.615
-49.7595 230.767 846.615
-49.7596 230.768 846.615
-49.7587 230.763 846.615
-49.7586 230.763 846.615
-49.7586 230.763 846.615
-60.4206 281.376 846.615
-60.4198 281.372 846.615
-60.419 281.368 846.615
-60.4182 281.364 846.615
-60.4057 281.305 846.615
-60.4541 281.146 847.48
-60.4557 281.145 847.499
-49.7593 230.762 846.624
-49.7593 230.761 846.626
-49.7594 230.761 846.628
-49.7663 230.35 847.615
-49.7701 230.368 847.615
-49.7783 230.407 847.615
-49.7507 230.276 847.615
-60.4729 281.174 847.615
-60.4722 281.171 847.615
-60.4715 281.168 847.615
-60.5526 281.144 848.525
-60.5541 281.142 848.545
-60.5549 281.14 848.557
-60.5524 281.124 848.566
-49.6644 229.417 848.615
-49.6646 229.418 848.615
-49.6651 229.42 848.615
-49.666 229.425 848.615
-49.6677 229.433 848.615
-49.6594 229.393 848.615
-49.659 229.391 848.615
-60.5615 281.145 848.615
-60.5612 281.144 848.615
-60.5609 281.143 848.615
-60.5607 281.142 848.615
-60.6642 281.184 849.615
-60.6642 281.184 849.615
-49.5214 228.288 849.615
-49.5215 228.289 849.615
-49.5217 228.29 849.615
-49.5222 228.292 849.615
-49.52 228.282 849.615
-49.5199 228.281 849.615
-60.6642 281.184 849.615
-60.6642 281.184 849.615
-60.6642 281.184 849.615
-60.6642 281.184 849.615
-60.6642 281.184 849.615
-60.6642 281.184 849.615
-49.5214 228.281 849.632
-49.5215 228.28 849.635
-49.5217 228.279 849.64
-49.5221 228.277 849.648
-49.5233 227.848 850.615
-49.5225 227.844 850.615
-49.5216 227.84 850.615
-60.787 281.317 850.615
-60.7862 281.313 850.615
-60.7671 281.223 850.615
-60.6642 281.184 849.615
-60.6642 281.184 849.615
-60.6642 281.184 849.615
-60.6642 281.184 849.615
-49.5833 227.27 852.536
-49.5831 227.275 852.522
-49.5505 227.528 851.615
-49.5524 227.537 851.615
-49.5391 227.474 851.615
-49.5384 227.47 851.615
-49.5377 227.467 851.615
-60.8623 281.225 851.615
-60.8617 281.222 851.615
-60.8611 281.219 851.615
-60.8604 281.216 851.615
-60.9518 281.238 852.53
-60.9529 281.237 852.545
-49.6712 227.217 853.58
-49.6686 227.208 853.573
-49.5883 227.258 852.615
-49.5798 227.218 852.615
-49.5794 227.215 852.615
-49.5789 227.213 852.615
-60.9617 281.247 852.615
-60.9614 281.246 852.615
-60.961 281.244 852.615
-60.9607 281.242 852.615
-61.106 281.494 853.591
-61.1066 281.494 853.596
-49.6721 227.205 853.616
-49.6723 227.206 853.616
-49.6697 227.194 853.616
-49.6695 227.193 853.616
-49.6693 227.192 853.616
-49.6691 227.192 853.616
-61.1101 281.502 853.616
-61.11 281.501 853.616
-61.1076 281.49 853.616
-61.1081 281.492 853.616
-61.1083 281.493 853.616
-61.1084 281.494 853.616
-49.672 227.191 853.648
-49.6723 227.189 853.654
-49.6727 227.187 853.663
-49.7369 227.064 854.616
-49.7362 227.06 854.616
-49.7354 227.057 854.616
-49.7347 227.053 854.616
-61.1724 281.348 854.616
-61.1717 281.345 854.616
-61.171 281.341 854.616
-61.1579 281.279 854.616
-61.1099 281.489 853.643
-61.1098 281.491 853.638
-49.808 226.952 855.616
-49.8074 226.949 855.616
-49.8069 226.946 855.616
-49.8063 226.944 855.616
-49.8058 226.941 855.616
-49.8052 226.938 855.616
-49.8046 226.936 855.616
-61.2396 281.218 855.616
-61.2391 281.215 855.616
-61.2385 281.213 855.616
-61.238 281.21 855.616
-61.2303 281.174 855.616
-61.231 281.177 855.616
-49.8935 226.908 856.616
-49.8875 226.88 856.616
-49.887 226.877 856.616
-49.8865 226.875 856.616
-49.8859 226.872 856.616
-49.8854 226.87 856.616
-49.8848 226.867 856.616
-61.3452 281.269 856.616
-61.3619 281.349 856.616
-61.3673 281.375 856.616
-61.3698 281.386 856.616
-61.3711 281.392 856.616
-61.3656 281.366 856.616
-49.9076 226.526 857.616
-49.9083 226.529 857.616
-49.9096 226.535 857.616
-49.9121 226.547 857.616
-49.9175 226.573 857.616
-49.9343 226.652 857.616
-61.4548 281.34 857.616
-61.4382 281.261 857.616
-61.443 281.284 857.616
-61.4452 281.295 857.616
-61.4464 281.3 857.616
-61.5043 281.155 858.552
-49.9661 226.354 858.616
-49.9666 226.356 858.616
-49.9675 226.361 858.616
-49.9693 226.369 858.616
-49.9732 226.387 858.616
-49.9852 226.445 858.616
-61.5137 281.17 858.616
-61.5134 281.169 858.616
-61.513 281.167 858.616
-61.507 281.139 858.616
-61.5078 281.143 858.616
-61.5684 280.996 859.581
-50.0255 226.186 859.616
-50.0258 226.188 859.616
-50.0264 226.19 859.616
-50.0274 226.195 859.616
-50.0221 226.17 859.616
-50.0219 226.169 859.616
-61.5735 281.005 859.616
-61.5734 281.004 859.616
-61.5732 281.003 859.616
-61.573 281.002 859.616
-61.5703 280.99 859.616
-61.5706 280.991 859.616
-50.0296 225.756 860.616
-50.0299 225.758 860.616
-50.0289 225.753 860.616
-50.0293 225.755 860.616
-50.0302 225.759 860.616
-50.0329 225.772 860.616
-61.6954 281.134 860.616
-61.6969 281.141 860.616
-61.6973 281.143 860.616
-61.6976 281.144 860.616
-61.6977 281.145 860.616
-61.6972 281.143 860.616
-50.1584 225.482 862.586
-50.1582 225.484 862.581
-50.158 225.486 862.573
-50.1578 225.491 862.56
-50.0946 225.615 861.616
-50.0939 225.612 861.616
-50.0932 225.609 861.616
-61.7603 280.993 861.616
-61.7596 280.989 861.616
-61.7589 280.986 861.616
-61.8673 281.081 862.549
-61.8656 281.067 862.564
-61.8671 281.069 862.573
-50.1582 225.468 862.616
-50.1581 225.467 862.616
-50.1579 225.466 862.616
-50.1577 225.466 862.616
-50.1576 225.465 862.616
-50.1574 225.464 862.616
-61.8758 281.091 862.616
-61.8756 281.09 862.616
-61.8753 281.089 862.616
-61.8716 281.072 862.616
-61.8721 281.074 862.616
-61.8724 281.075 862.616
-50.2706 225.105 864.612
-50.2705 225.104 864.61
-50.2703 225.104 864.609
-50.2699 225.104 864.606
-50.1678 225.064 863.616
-50.1671 225.061 863.616
-61.9516 281.002 863.616
-61.974 281.108 863.616
-62.046 281.005 864.607
-62.0463 281.005 864.609
-62.0464 281.005 864.611
-62.0465 281.005 864.612
-50.2711 225.105 864.616
-50.2711 225.105 864.616
-50.2711 225.105 864.616
-50.271 225.105 864.616
-50.271 225.105 864.616
-50.271 225.104 864.616
-62.047 281.005 864.616
-62.047 281.005 864.616
-62.047 281.005 864.616
-62.047 281.005 864.616
-62.0469 281.005 864.616
-50.373 225.139 865.616
-50.3728 225.138 865.616
-50.3726 225.137 865.616
-50.3724 225.136 865.616
-50.3721 225.135 865.616
-50.3719 225.134 865.616
-62.1955 281.261 865.616
-62.2036 281.299 865.616
-62.2062 281.312 865.616
-62.2074 281.317 865.616
-62.208 281.32 865.616
-62.2084 281.322 865.616
-50.4472 225.042 866.616
-50.447 225.041 866.616
-50.4468 225.04 866.616
-50.4465 225.039 866.616
-50.4463 225.038 866.616
-50.4461 225.037 866.616
-62.2866 281.243 866.616
-62.2781 281.203 866.616
-62.2806 281.215 866.616
-62.2817 281.22 866.616
-62.2822 281.223 866.616
-62.2825 281.224 866.616
-50.5169 224.923 867.616
-50.5167 224.922 867.616
-50.5165 224.921 867.616
-50.5163 224.921 867.616
-50.5162 224.92 867.616
-50.516 224.919 867.616
-62.3558 281.123 867.616
-62.3556 281.122 867.616
-62.3554 281.121 867.616
-62.3552 281.12 867.616
-62.3711 280.747 868.613
-62.3711 280.747 868.614
-50.5175 224.912 867.648
-50.5174 224.909 867.654
-50.5174 224.904 867.663
-50.5379 224.573 868.616
-50.537 224.569 868.616
-50.5362 224.565 868.616
-50.5353 224.561 868.616
-62.3713 280.747 868.616
-62.3713 280.747 868.616
-62.3713 280.747 868.616
-62.3713 280.747 868.616
-62.3713 280.747 868.616
-50.548 223.732 870.594
-50.5477 223.733 870.589
-50.5471 223.734 870.58
-50.5462 223.737 870.565
-50.4992 223.94 869.616
-50.4985 223.937 869.616
-62.3916 280.394 869.616
-62.3909 280.39 869.616
-62.5046 280.493 870.59
-62.5056 280.493 870.598
-62.506 280.493 870.602
-62.5063 280.493 870.605
-50.5505 223.734 870.617
-50.5507 223.735 870.617
-50.5491 223.727 870.617
-50.549 223.727 870.617
-50.5489 223.726 870.617
-50.5488 223.726 870.617
-62.5079 280.496 870.617
-62.5078 280.495 870.617
-62.5078 280.495 870.617
-62.5077 280.495 870.617
-62.5076 280.495 870.617
-50.6814 223.466 872.595
-50.6618 223.813 871.617
-50.6615 223.811 871.617
-50.6612 223.81 871.617
-50.6608 223.808 871.617
-50.6605 223.807 871.617
-62.6848 280.886 871.617
-62.6844 280.884 871.617
-62.6841 280.883 871.617
-62.6838 280.881 871.617
-62.8191 281.085 872.594
-62.8195 281.085 872.598
-50.6818 223.458 872.617
-50.6817 223.458 872.617
-50.6816 223.457 872.617
-50.6815 223.457 872.617
-50.6814 223.456 872.617
-50.6812 223.456 872.617
-62.8162 281.061 872.617
-62.8193 281.075 872.617
-62.8203 281.08 872.617
-62.8208 281.082 872.617
-62.821 281.083 872.617
-50.6836 223.456 872.64
-50.6839 223.455 872.646
-50.6845 223.454 872.654
-50.7215 223.197 873.617
-50.703 223.11 873.617
-50.7022 223.106 873.617
-62.9605 281.296 873.617
-62.9597 281.292 873.617
-62.9413 281.205 873.617
-62.8252 281.088 872.651
-62.8245 281.088 872.643
-62.824 281.088 872.638
-50.8323 223.274 874.617
-50.8315 223.27 874.617
-50.8307 223.266 874.617
-50.8299 223.262 874.617
-50.8291 223.258 874.617
-50.8283 223.255 874.617
-63.0265 281.16 874.617
-63.0256 281.156 874.617
-63.0061 281.063 874.617
-63.0098 281.081 874.617
-63.0117 281.09 874.617
-63.0127 281.094 874.617
-50.9188 222.835 876.506
-50.9175 222.84 876.482
-50.892 223.108 875.617
-50.8912 223.104 875.617
-50.8904 223.1 875.617
-50.8895 223.096 875.617
-63.0885 281.005 875.617
-63.0876 281 875.617
-63.0673 280.904 875.617
-63.0712 280.922 875.617
-63.0972 280.662 876.471
-63.0987 280.658 876.496
-50.9484 222.504 877.555
-50.9477 222.507 877.542
-50.9208 222.795 876.617
-50.9202 222.792 876.617
-50.9196 222.789 876.617
-50.919 222.786 876.617
-63.1124 280.669 876.617
-63.1118 280.666 876.617
-63.0971 280.596 876.617
-63.0999 280.609 876.617
-63.1269 280.329 877.527
-63.1279 280.326 877.542
-50.9501 222.485 877.617
-50.9498 222.483 877.617
-50.9495 222.482 877.617
-50.9492 222.48 877.617
-50.9488 222.479 877.617
-50.9485 222.477 877.617
-63.1363 280.333 877.617
-63.1359 280.331 877.617
-63.1355 280.329 877.617
-63.1286 280.296 877.617
-63.1295 280.3 877.617
-63.1299 280.302 877.617
-51.1694 222.661 879.541
-51.1671 222.657 879.524
-51.1636 222.653 879.498
-51.0599 222.556 878.617
-51.0591 222.552 878.617
-51.0583 222.549 878.617
-63.256 280.451 878.617
-63.2552 280.447 878.617
-63.2543 280.443 878.617
-63.3678 280.589 879.492
-63.371 280.592 879.519
-63.3679 280.569 879.537
-51.179 222.672 879.617
-51.1787 222.671 879.617
-51.1783 222.669 879.617
-51.1779 222.667 879.617
-51.1775 222.665 879.617
-51.1771 222.663 879.617
-63.3846 280.613 879.617
-63.3842 280.611 879.617
-63.3838 280.608 879.617
-63.3834 280.606 879.617
-63.3829 280.604 879.617
-63.4362 280.426 880.577
-51.1808 222.231 880.617
-51.181 222.232 880.617
-51.1816 222.235 880.617
-51.1826 222.24 880.617
-51.1848 222.25 880.617
-51.1917 222.283 880.617
-63.442 280.435 880.617
-63.4418 280.434 880.617
-63.4416 280.433 880.617
-63.4414 280.432 880.617
-63.4411 280.431 880.617
-51.1804 222.208 880.663
-51.1807 222.205 880.674
-51.2315 222.022 881.617
-51.2307 222.019 881.617
-51.2299 222.015 881.617
-51.229 222.011 881.617
-63.494 280.233 881.617
-63.5198 280.355 881.617
-63.5282 280.395 881.617
-63.4448 280.418 880.686
-63.4438 280.42 880.67
-63.4432 280.422 880.66
-51.2752 221.377 883.516
-51.2255 221.545 882.617
-51.2248 221.541 882.617
-51.2241 221.538 882.617
-51.2234 221.535 882.617
-51.2227 221.531 882.617
-63.5558 280.076 882.617
-63.5765 280.175 882.617
-63.5832 280.207 882.617
-63.5862 280.221 882.617
-63.5877 280.228 882.617
-63.6373 280.06 883.515
-51.2808 221.357 883.617
-51.2802 221.355 883.617
-51.2797 221.352 883.617
-51.2791 221.35 883.617
-51.2786 221.347 883.617
-51.278 221.344 883.617
-63.6518 280.083 883.617
-63.6512 280.08 883.617
-63.6386 280.02 883.617
-63.641 280.032 883.617
-63.6422 280.037 883.617
-63.6429 280.04 883.617
-51.3473 221.224 884.617
-51.3467 221.221 884.617
-51.3462 221.218 884.617
-51.3456 221.216 884.617
-51.345 221.213 884.617
-51.3445 221.21 884.617
-63.7187 279.951 884.617
-63.7181 279.948 884.617
-63.7175 279.945 884.617
-63.7169 279.942 884.617
-63.7163 279.939 884.617
-63.7094 279.907 884.617
-51.4168 221.104 885.617
-51.4162 221.101 885.617
-51.4156 221.098 885.617
-51.4149 221.095 885.617
-51.4143 221.092 885.617
-51.4137 221.089 885.617
-63.8503 280.126 885.617
-63.8278 280.019 885.617
-63.8342 280.05 885.617
-63.8372 280.064 885.617
-63.8386 280.071 885.617
-63.8394 280.074 885.617
-51.4697 220.906 886.617
-51.469 220.902 886.617
-51.4682 220.899 886.617
-51.4675 220.895 886.617
-51.4668 220.892 886.617
-51.466 220.888 886.617
-63.905 279.937 886.617
-63.9042 279.933 886.617
-63.9034 279.929 886.617
-63.8899 279.865 886.617
-63.8916 279.873 886.617
-63.8925 279.877 886.617
-51.5036 220.171 888.61
-51.5036 220.172 888.608
-51.5036 220.173 888.605
-51.5036 220.176 888.599
-51.5174 220.683 887.617
-51.5165 220.679 887.617
-63.958 279.739 887.617
-63.9571 279.734 887.617
-64.0068 279.525 888.606
-64.0065 279.522 888.61
-64.0067 279.522 888.612
-64.0068 279.522 888.613
-51.5035 220.167 888.618
-51.5034 220.167 888.618
-51.5034 220.166 888.618
-51.5034 220.166 888.618
-51.5033 220.166 888.618
-64.0074 279.523 888.618
-64.0074 279.523 888.618
-64.0069 279.52 888.618
-64.0069 279.521 888.618
-64.007 279.521 888.618
-51.5513 219.944 889.618
-51.5512 219.944 889.618
-51.5511 219.943 889.618
-51.551 219.943 889.618
-51.5509 219.942 889.618
-64.056 279.305 889.618
-64.056 279.304 889.618
-64.0541 279.295 889.618
-64.0545 279.297 889.618
-64.0546 279.298 889.618
-51.5524 219.941 889.638
-51.5526 219.939 889.643
-51.5529 219.938 889.651
-51.6108 219.777 890.618
-51.61 219.773 890.618
-51.6092 219.77 890.618
-64.1101 279.112 890.618
-64.1092 279.108 890.618
-64.1084 279.103 890.618
-64.0557 279.291 889.645
-64.0557 279.293 889.639
-64.0556 279.295 889.635
-51.6696 219.607 891.618
-51.668 219.6 891.618
-51.6659 219.589 891.618
-51.6626 219.574 891.618
-51.6565 219.545 891.618
-51.6384 219.459 891.618
-64.1662 278.928 891.618
-64.1656 278.926 891.618
-64.1651 278.923 891.618
-64.1646 278.921 891.618
-64.1576 278.888 891.618
-64.1582 278.89 891.618
-51.7622 219.597 892.618
-51.7605 219.589 892.618
-51.7582 219.578 892.618
-51.7547 219.562 892.618
-51.7482 219.531 892.618
-51.7288 219.439 892.618
-64.2598 278.923 892.618
-64.2592 278.921 892.618
-64.2586 278.918 892.618
-64.2495 278.874 892.618
-64.2506 278.88 892.618
-64.2512 278.883 892.618
-51.8693 219.656 893.618
-51.8669 219.645 893.618
-51.8636 219.629 893.618
-51.8586 219.605 893.618
-51.8493 219.561 893.618
-51.8737 219.677 893.618
-64.3731 279.012 893.618
-64.3723 279.008 893.618
-64.3716 279.004 893.618
-64.3586 278.943 893.618
-64.3603 278.951 893.618
-64.3611 278.955 893.618
-51.987 219.358 895.525
-51.9843 219.354 895.505
-51.9356 219.521 894.618
-51.9466 219.573 894.618
-51.9458 219.57 894.618
-51.9451 219.567 894.618
-64.4436 278.897 894.618
-64.4428 278.893 894.618
-64.4421 278.89 894.618
-64.4299 278.832 894.618
-64.4744 278.644 895.505
-64.4759 278.643 895.524
-51.9917 219.338 895.618
-51.9901 219.331 895.618
-51.9962 219.359 895.618
-51.9957 219.357 895.618
-51.9952 219.355 895.618
-51.9947 219.352 895.618
-64.4885 278.661 895.618
-64.488 278.658 895.618
-64.4875 278.656 895.618
-64.4869 278.653 895.618
-64.4798 278.619 895.618
-64.4804 278.622 895.618
-52.0404 219.12 896.618
-52.0448 219.141 896.618
-52.0443 219.139 896.618
-52.0439 219.136 896.618
-52.0434 219.134 896.618
-52.043 219.132 896.618
-64.5356 278.435 896.618
-64.5351 278.432 896.618
-64.5346 278.43 896.618
-64.5341 278.428 896.618
-64.5278 278.398 896.618
-64.5283 278.4 896.618
-52.0926 218.918 897.618
-52.0921 218.916 897.618
-52.0917 218.914 897.618
-52.0912 218.911 897.618
-52.0907 218.909 897.618
-52.0902 218.907 897.618
-64.5837 278.214 897.618
-64.5832 278.211 897.618
-64.5827 278.209 897.618
-64.5822 278.206 897.618
-64.5753 278.174 897.618
-64.5758 278.176 897.618
-52.1894 218.498 899.575
-52.1412 218.7 898.618
-52.1408 218.698 898.618
-52.1404 218.696 898.618
-52.14 218.694 898.618
-52.1396 218.692 898.618
-64.6314 277.991 898.618
-64.631 277.989 898.618
-64.6305 277.986 898.618
-64.6301 277.984 898.618
-64.6713 277.755 899.563
-64.6721 277.755 899.572
-52.189 218.477 899.618
-52.1883 218.473 899.618
-52.1911 218.487 899.618
-52.1909 218.486 899.618
-52.1906 218.485 899.618
-52.1904 218.483 899.618
-64.6783 277.764 899.618
-64.6781 277.763 899.618
-64.6778 277.761 899.618
-64.6775 277.76 899.618
-64.6773 277.759 899.618
-52.2624 218.376 900.618
-52.2618 218.373 900.618
-52.261 218.369 900.618
-52.2637 218.382 900.618
-52.2635 218.381 900.618
-64.8103 277.941 900.618
-64.8038 277.91 900.618
-64.8056 277.919 900.618
-64.8065 277.923 900.618
-64.8069 277.925 900.618
-52.3573 218.377 901.618
-52.3569 218.375 901.618
-52.3564 218.372 901.618
-52.3553 218.367 901.618
-52.3581 218.381 901.618
-64.904 277.936 901.618
-64.8987 277.911 901.618
-64.9002 277.918 901.618
-64.9009 277.922 901.618
-64.9013 277.923 901.618
-52.3589 218.376 901.636
-52.3589 218.374 901.641
-52.3589 218.371 901.648
-52.442 218.33 902.618
-52.4412 218.325 902.618
-52.4403 218.321 902.618
-64.9826 277.86 902.618
-64.9822 277.858 902.618
-64.9823 277.859 902.618
-64.9824 277.859 902.618
-64.9824 277.859 902.618
-52.5702 218.063 904.565
-52.5684 218.06 904.553
-52.5709 218.08 904.536
-52.5109 218.207 903.618
-52.5104 218.204 903.618
-52.5098 218.202 903.618
-65.0449 277.706 903.618
-65.0442 277.703 903.618
-65.0288 277.63 903.618
-64.9826 277.858 902.622
-64.9826 277.858 902.621
-64.9826 277.859 902.62
-52.5738 218.056 904.618
-52.5766 218.069 904.618
-52.5763 218.068 904.618
-52.576 218.067 904.618
-52.5757 218.065 904.618
-52.5754 218.064 904.618
-65.1026 277.53 904.618
-65.1022 277.528 904.618
-65.1017 277.526 904.618
-65.095 277.495 904.618
-65.2108 277.607 905.591
-52.5799 218.06 904.674
-52.5805 218.057 904.687
-52.6395 217.918 905.619
-52.6387 217.914 905.619
-52.6378 217.91 905.619
-52.6369 217.906 905.619
-65.2086 277.584 905.619
-65.2122 277.601 905.619
-65.2134 277.606 905.619
-65.2139 277.609 905.619
-65.2142 277.61 905.619
-52.7875 217.731 907.599
-52.7883 217.737 907.594
-52.7876 217.737 907.586
-52.7863 217.737 907.572
-52.7104 217.805 906.619
-52.7095 217.801 906.619
-65.288 277.511 906.619
-65.285 277.497 906.619
-65.2858 277.501 906.619
-65.2862 277.503 906.619
-65.2864 277.504 906.619
-52.7891 217.729 907.619
-52.7887 217.727 907.619
-52.7881 217.724 907.619
-52.7901 217.734 907.619
-52.79 217.734 907.619
-65.3736 277.468 907.619
-65.3646 277.426 907.619
-65.3672 277.438 907.619
-65.3684 277.443 907.619
-65.3689 277.446 907.619
-52.8618 217.625 908.619
-52.8614 217.623 908.619
-52.8608 217.62 908.619
-52.8626 217.629 908.619
-52.8625 217.628 908.619
-65.4459 277.362 908.619
-65.4372 277.321 908.619
-65.4397 277.332 908.619
-65.4408 277.338 908.619
-65.4414 277.34 908.619
-52.9801 217.321 910.545
-52.9776 217.316 910.529
-52.974 217.31 910.504
-52.9077 217.394 909.619
-52.9219 217.461 909.619
-52.9212 217.458 909.619
-65.4947 277.144 909.619
-65.4937 277.139 909.619
-65.4743 277.047 909.619
-65.5301 276.94 910.447
-65.4443 277.326 908.683
-65.4442 277.33 908.671
-53.0621 217.25 911.568
-52.9838 217.305 910.619
-52.9821 217.297 910.619
-52.9882 217.326 910.619
-52.9878 217.324 910.619
-52.9874 217.322 910.619
-65.5527 276.97 910.619
-65.5327 276.875 910.619
-65.5384 276.902 910.619
-65.5409 276.914 910.619
-65.5422 276.92 910.619
-65.6146 276.855 911.529
-53.1498 217.199 912.608
-53.1502 217.202 912.605
-53.0687 217.259 911.619
-53.0684 217.257 911.619
-53.0681 217.256 911.619
-53.0679 217.255 911.619
-65.6297 276.886 911.619
-65.6133 276.808 911.619
-65.618 276.83 911.619
-65.62 276.84 911.619
-65.6962 276.781 912.555
-53.1513 217.202 912.619
-53.1513 217.201 912.619
-53.1512 217.201 912.619
-53.1512 217.201 912.619
-53.1511 217.2 912.619
-65.7064 276.8 912.619
-65.6968 276.755 912.619
-65.6995 276.768 912.619
-65.7007 276.774 912.619
-65.7013 276.777 912.619
-53.3276 217.157 914.579
-53.3266 217.157 914.57
-53.3252 217.156 914.557
-53.2424 217.184 913.619
-53.2418 217.182 913.619
-53.2413 217.179 913.619
-65.7818 276.709 913.619
-65.7809 276.705 913.619
-65.7801 276.701 913.619
-65.8383 276.591 914.479
-65.8419 276.594 914.509
-65.844 276.596 914.528
-53.3311 217.156 914.619
-53.3309 217.155 914.619
-53.3307 217.154 914.619
-53.3304 217.153 914.619
-53.3302 217.152 914.619
-53.33 217.151 914.619
-65.8594 276.628 914.619
-65.8589 276.625 914.619
-65.8479 276.573 914.619
-65.85 276.583 914.619
-65.851 276.588 914.619
-53.4751 217.39 915.619
-53.4746 217.388 915.619
-53.474 217.385 915.619
-53.4729 217.38 915.619
-53.471 217.37 915.619
-53.4651 217.342 915.619
-65.9447 276.583 915.619
-65.9279 276.504 915.619
-65.9327 276.526 915.619
-65.9348 276.536 915.619
-65.9359 276.542 915.619
-65.9364 276.544 915.619
-53.4909 217.016 916.619
-53.4908 217.015 916.619
-53.4907 217.014 916.619
-53.4905 217.014 916.619
-53.4904 217.013 916.619
-65.9917 276.357 916.619
-66.0036 276.413 916.619
-66.0074 276.432 916.619
-66.0092 276.44 916.619
-66.0101 276.444 916.619
-53.5954 216.625 918.591
-53.5949 216.626 918.585
-53.5942 216.627 918.575
-53.5404 216.801 917.619
-53.5398 216.798 917.619
-53.5392 216.796 917.619
-66.0486 276.178 917.619
-66.0195 276.039 917.619
-66.0277 276.078 917.619
-66.073 275.907 918.479
-66.0756 275.906 918.509
-66.0771 275.904 918.528
-53.5968 216.619 918.619
-53.5967 216.619 918.619
-53.5965 216.618 918.619
-53.5964 216.617 918.619
-53.5962 216.617 918.619
-66.0891 275.92 918.619
-66.0734 275.846 918.619
-66.0778 275.867 918.619
-66.0798 275.876 918.619
-66.1591 275.831 919.558
-53.5994 216.618 918.649
-53.5999 216.617 918.656
-53.6007 216.616 918.667
-53.686 216.593 919.619
-53.6852 216.589 919.619
-53.6843 216.585 919.619
-66.169 275.85 919.619
-66.1599 275.807 919.619
-66.1625 275.819 919.619
-66.1636 275.825 919.619
-66.247 275.776 920.607
-53.8614 216.548 921.573
-53.8631 216.56 921.563
-53.8614 216.559 921.548
-53.775 216.566 920.619
-53.7743 216.563 920.619
-53.7737 216.56 920.619
-66.2489 275.78 920.619
-66.2471 275.772 920.619
-66.2477 275.774 920.619
-66.2479 275.775 920.619
-66.248 275.776 920.619
-53.8658 216.548 921.619
-53.8682 216.559 921.619
-53.8679 216.558 921.619
-53.8677 216.557 921.619
-53.8674 216.556 921.619
-53.8672 216.554 921.619
-66.3262 275.697 921.619
-66.3059 275.601 921.619
-66.3116 275.628 921.619
-66.3924 275.593 922.551
-66.3942 275.595 922.566
-66.3953 275.596 922.575
-54.1137 216.838 923.59
-54.1124 216.836 923.583
-54.1106 216.832 923.572
-54.0096 216.781 922.62
-54.0009 216.739 922.62
-53.9738 216.61 922.62
-66.4028 275.611 922.62
-66.4026 275.61 922.62
-66.3972 275.585 922.62
-66.3982 275.59 922.62
-66.3987 275.592 922.62
-54.1166 216.839 923.62
-54.1161 216.836 923.62
-54.1154 216.833 923.62
-54.1143 216.828 923.62
-54.1124 216.819 923.62
-54.1175 216.843 923.62
-66.4743 275.501 923.62
-66.4736 275.498 923.62
-66.4728 275.494 923.62
-66.5945 275.67 924.514
-66.5923 275.649 924.538
-66.5948 275.654 924.553
-54.119 216.837 923.649
-54.2074 216.821 924.62
-54.2046 216.807 924.62
-54.2144 216.854 924.62
-54.2138 216.851 924.62
-54.2131 216.848 924.62
-66.5885 275.594 924.62
-66.5984 275.641 924.62
-66.6017 275.656 924.62
-66.6031 275.663 924.62
-66.5994 275.646 924.62
-54.3132 216.873 925.62
-54.3113 216.865 925.62
-54.3181 216.896 925.62
-54.3175 216.894 925.62
-54.317 216.891 925.62
-54.3164 216.889 925.62
-66.6924 275.638 925.62
-66.7005 275.676 925.62
-66.7032 275.689 925.62
-66.7044 275.695 925.62
-66.705 275.698 925.62
-54.4736 216.737 927.617
-54.4737 216.738 927.617
-54.4736 216.738 927.616
-54.4179 216.921 926.62
-54.4175 216.919 926.62
-54.417 216.917 926.62
-66.7938 275.669 926.62
-66.7995 275.697 926.62
-66.8014 275.706 926.62
-66.8023 275.71 926.62
-66.8028 275.712 926.62
-54.4739 216.737 927.62
-54.4739 216.737 927.62
-54.4739 216.737 927.62
-54.4739 216.737 927.62
-54.4738 216.737 927.62
-66.7977 275.239 927.62
-66.8179 275.334 927.62
-66.8247 275.366 927.62
-66.8668 275.161 928.522
-66.8685 275.16 928.543
-66.8694 275.158 928.557
-54.6721 216.787 929.602
-54.6714 216.786 929.598
-54.6704 216.784 929.591
-54.5863 216.821 928.62
-54.5811 216.797 928.62
-54.5943 216.859 928.62
-66.8574 275.072 928.62
-66.8666 275.116 928.62
-66.8696 275.13 928.62
-66.871 275.137 928.62
-66.8717 275.14 928.62
-54.6736 216.786 929.62
-54.6732 216.785 929.62
-54.6728 216.782 929.62
-54.6721 216.779 929.62
-54.6708 216.773 929.62
-54.6741 216.789 929.62
-66.8807 274.733 929.62
-66.8797 274.729 929.62
-66.8787 274.724 929.62
-66.8773 275.119 928.726
-66.8768 275.128 928.702
-66.8764 275.133 928.687
-54.8362 216.671 931.594
-54.8352 216.669 931.588
-54.8335 216.666 931.577
-54.8305 216.66 931.558
-54.755 216.723 930.62
-54.7542 216.719 930.62
-66.9454 274.591 930.62
-66.9447 274.588 930.62
-66.9953 274.392 931.59
-66.9956 274.39 931.599
-66.9948 274.384 931.604
-66.9951 274.384 931.607
-54.8385 216.67 931.62
-54.8381 216.668 931.62
-54.8375 216.665 931.62
-54.8366 216.661 931.62
-54.8348 216.653 931.62
-54.8393 216.674 931.62
-66.997 274.387 931.62
-66.9969 274.386 931.62
-66.9968 274.386 931.62
-66.9968 274.386 931.62
-66.9967 274.385 931.62
-54.9225 216.62 932.62
-54.921 216.613 932.62
-54.919 216.603 932.62
-54.9159 216.588 932.62
-54.9097 216.559 932.62
-54.9252 216.632 932.62
-67.1098 274.473 932.62
-67.0917 274.387 932.62
-67.0967 274.411 932.62
-67.1624 274.291 933.581
-67.1633 274.291 933.589
-67.1638 274.291 933.595
-55.0872 216.536 934.544
-55.0846 216.53 934.53
-55.081 216.523 934.509
-55.0755 216.512 934.475
-54.9902 216.491 933.62
-55.0108 216.589 933.62
-55.0099 216.585 933.62
-67.1677 274.298 933.62
-67.1675 274.297 933.62
-67.1674 274.297 933.62
-67.165 274.285 933.62
-67.1653 274.287 933.62
-55.1945 216.566 935.611
-55.1941 216.565 935.609
-55.1935 216.564 935.605
-55.0963 216.546 934.62
-55.0959 216.543 934.62
-55.0954 216.541 934.62
-67.2254 274.122 934.62
-67.2246 274.119 934.62
-67.2239 274.115 934.62
-67.2929 274.031 935.537
-67.2901 274.008 935.557
-67.2913 274.009 935.568
-55.1954 216.567 935.62
-55.1953 216.566 935.62
-55.195 216.565 935.62
-55.1958 216.568 935.62
-55.1958 216.568 935.62
-55.1957 216.568 935.62
-67.3001 274.028 935.62
-67.2998 274.026 935.62
-67.2995 274.025 935.62
-67.2992 274.023 935.62
-67.2952 274.004 935.62
-55.3595 216.473 937.56
-55.3574 216.47 937.546
-55.3 216.613 936.62
-55.2994 216.611 936.62
-55.2988 216.608 936.62
-55.2982 216.605 936.62
-67.3764 273.94 936.62
-67.3754 273.936 936.62
-67.3745 273.931 936.62
-67.3007 273.992 935.705
-67.3002 273.998 935.686
-67.2997 274.001 935.674
-55.4264 216.323 938.603
-55.4259 216.322 938.599
-55.3666 216.48 937.62
-55.3663 216.479 937.62
-55.3659 216.477 937.62
-55.3656 216.476 937.62
-67.4273 273.732 937.62
-67.4266 273.729 937.62
-67.4128 273.663 937.62
-67.4153 273.675 937.62
-67.4166 273.682 937.62
-67.4645 273.492 938.547
-55.4275 216.32 938.62
-55.4272 216.319 938.62
-55.4268 216.316 938.62
-55.4283 216.324 938.62
-55.4282 216.323 938.62
-55.4281 216.323 938.62
-67.4749 273.509 938.62
-67.4616 273.446 938.62
-67.4652 273.463 938.62
-67.5266 273.318 939.591
-67.5272 273.318 939.597
-55.5793 216.17 940.556
-55.5768 216.165 940.541
-55.5731 216.158 940.518
-55.5074 216.25 939.62
-55.5067 216.246 939.62
-55.506 216.243 939.62
-67.5303 273.323 939.62
-67.527 273.307 939.62
-67.5279 273.311 939.62
-67.5283 273.313 939.62
-67.5285 273.314 939.62
-55.5847 216.167 940.621
-55.5835 216.161 940.621
-55.5819 216.153 940.621
-55.5794 216.142 940.621
-55.5745 216.118 940.621
-55.5868 216.177 940.621
-67.5867 273.14 940.621
-67.5633 273.029 940.621
-67.632 272.938 941.549
-67.6342 272.939 941.569
-67.6353 272.94 941.581
-67.636 272.94 941.588
-55.7818 216.205 942.617
-55.7819 216.206 942.616
-55.7817 216.206 942.615
-55.7814 216.205 942.613
-55.7807 216.204 942.609
-55.6578 216.064 941.621
-55.6827 216.183 941.621
-67.6409 272.948 941.621
-67.6352 272.921 941.621
-67.6368 272.929 941.621
-67.6375 272.932 941.621
-67.6379 272.934 941.621
-55.7822 216.205 942.621
-55.7824 216.206 942.621
-55.7822 216.205 942.621
-55.7821 216.205 942.621
-55.7817 216.203 942.621
-55.7806 216.198 942.621
-67.6934 272.748 942.621
-67.6928 272.745 942.621
-67.6812 272.69 942.621
-67.767 272.666 943.58
-67.768 272.667 943.589
-67.7687 272.668 943.594
-55.7826 216.206 942.625
-55.7826 216.205 942.626
-55.7829 216.206 942.627
-55.885 216.244 943.621
-55.8808 216.224 943.621
-55.8725 216.185 943.621
-55.8446 216.052 943.621
-67.7734 272.678 943.621
-67.7732 272.677 943.621
-67.7699 272.662 943.621
-67.7705 272.665 943.621
-67.7708 272.666 943.621
-56.0023 216.351 944.621
-56.001 216.345 944.621
-56.0031 216.355 944.621
-56.0015 216.347 944.621
-55.9983 216.332 944.621
-55.9875 216.281 944.621
-67.861 272.645 944.621
-67.8602 272.641 944.621
-67.8593 272.636 944.621
-67.9498 272.677 945.486
-67.9461 272.645 945.519
-67.9486 272.649 945.536
-56.1587 216.195 946.621
-56.1587 216.195 946.621
-56.1587 216.195 946.621
-56.1587 216.195 946.621
-56.1587 216.195 946.621
-56.0649 216.199 945.621
-56.0879 216.308 945.621
-67.9385 272.563 945.621
-67.9504 272.619 945.621
-67.9545 272.639 945.621
-67.9564 272.648 945.621
-67.9574 272.653 945.621
-56.1587 216.195 946.621
-56.1587 216.195 946.621
-56.1587 216.195 946.621
-56.1587 216.195 946.621
-56.1587 216.195 946.621
-56.1587 216.195 946.621
-67.9884 272.351 946.621
-67.9875 272.346 946.621
-67.9681 272.254 946.621
-68.0058 272.043 947.488
-68.008 272.041 947.516
-68.0092 272.039 947.534
-56.2867 215.917 948.589
-56.2855 215.915 948.582
-56.2838 215.913 948.57
-56.2137 216.006 947.621
-56.226 216.065 947.621
-56.2254 216.062 947.621
-68.0204 272.053 947.621
-68.0199 272.05 947.621
-68.0091 271.999 947.621
-68.0111 272.008 947.621
-68.0521 271.77 948.586
-56.2888 215.913 948.621
-56.2882 215.91 948.621
-56.2874 215.907 948.621
-56.2861 215.9 948.621
-56.29 215.919 948.621
-56.2899 215.918 948.621
-68.0564 271.774 948.621
-68.0511 271.749 948.621
-68.0526 271.756 948.621
-68.0532 271.759 948.621
-68.0536 271.761 948.621
-56.4191 215.655 950.573
-56.4176 215.651 950.564
-56.4155 215.647 950.55
-56.4122 215.642 950.528
-56.4065 215.633 950.488
-56.3569 215.787 949.621
-56.3561 215.783 949.621
-68.0898 271.483 949.621
-68.0653 271.367 949.621
-68.0719 271.398 949.621
-68.0546 271.744 948.669
-68.0516 270.87 950.581
-68.0521 270.87 950.588
-56.4216 215.645 950.621
-56.4205 215.64 950.621
-56.4191 215.633 950.621
-56.4167 215.622 950.621
-56.4121 215.6 950.621
-56.4235 215.654 950.621
-68.0563 270.875 950.621
-68.0561 270.874 950.621
-68.0559 270.873 950.621
-68.0528 270.858 950.621
-68.0531 270.86 950.621
-56.6221 215.711 952.591
-56.6231 215.718 952.586
-56.6214 215.714 952.578
-56.6187 215.707 952.564
-56.501 215.572 951.621
-56.4893 215.517 951.621
-56.518 215.653 951.621
-68.1226 270.74 951.621
-68.1444 270.843 951.621
-68.2141 270.791 952.474
-68.2188 270.795 952.514
-68.2164 270.772 952.54
-68.2187 270.777 952.554
-56.6248 215.71 952.621
-56.6264 215.718 952.621
-56.6255 215.714 952.621
-56.6241 215.707 952.621
-56.6213 215.694 952.621
-56.6114 215.647 952.621
-68.2123 270.716 952.621
-68.2216 270.76 952.621
-68.2248 270.776 952.621
-68.2931 270.651 953.619
-68.2932 270.652 953.619
-56.8061 215.698 954.563
-56.8081 215.711 954.555
-56.8052 215.705 954.539
-56.8009 215.695 954.514
-56.7079 215.655 953.621
-56.6963 215.6 953.621
-56.7245 215.734 953.621
-68.2931 270.65 953.621
-68.2933 270.651 953.621
-68.2933 270.652 953.621
-68.2934 270.652 953.621
-68.2933 270.651 953.621
-56.8117 215.699 954.621
-56.8144 215.711 954.621
-56.8131 215.705 954.621
-56.8113 215.697 954.621
-56.8085 215.684 954.621
-56.8029 215.657 954.621
-56.8166 215.722 954.621
-68.3523 270.482 954.621
-68.3318 270.385 954.621
-68.3373 270.411 954.621
-68.2935 270.651 953.623
-68.2935 270.652 953.623
-68.2935 270.652 953.622
-56.9449 215.448 956.585
-56.9464 215.458 956.579
-56.9448 215.455 956.569
-56.9424 215.451 956.551
-56.9378 215.445 956.518
-56.858 215.469 955.621
-56.8902 215.622 955.621
-68.3806 270.167 955.621
-68.3744 270.138 955.621
-68.3761 270.146 955.621
-68.3769 270.149 955.621
-68.3773 270.151 955.621
-56.9446 214.996 957.588
-56.9435 214.994 957.582
-56.9455 215.006 957.575
-56.9445 215.007 957.562
-56.9455 215.435 956.621
-56.942 215.418 956.621
-56.9294 215.358 956.621
-68.4043 269.83 956.621
-68.4248 269.927 956.621
-68.4163 269.887 956.621
-68.377 270.126 955.674
-68.3775 270.133 955.663
-68.3778 270.138 955.656
-56.9462 214.988 957.622
-56.9454 214.985 957.622
-56.9483 214.998 957.622
-56.9481 214.997 957.622
-56.9478 214.996 957.622
-56.9476 214.995 957.622
-68.4245 269.476 957.622
-68.4125 269.419 957.622
-68.4157 269.434 957.622
-68.4172 269.441 957.622
-68.418 269.445 957.622
-57.0143 214.862 958.622
-57.0161 214.871 958.622
-57.0153 214.867 958.622
-57.0141 214.861 958.622
-57.0181 214.88 958.622
-57.0179 214.879 958.622
-57.0176 214.878 958.622
-68.4742 269.262 958.622
-68.4836 269.307 958.622
-68.4869 269.323 958.622
-68.4827 269.303 958.622
-68.5197 269.038 959.601
-57.1185 214.474 960.586
-57.1174 214.472 960.579
-57.1159 214.47 960.568
-57.1188 214.489 960.555
-57.1172 214.495 960.526
-57.1201 214.915 959.622
-57.084 214.743 959.622
-68.5177 269.019 959.622
-68.5202 269.031 959.622
-68.5211 269.035 959.622
-68.52 269.03 959.622
-68.5205 269.032 959.622
-57.1179 214.455 960.622
-57.1196 214.463 960.622
-57.1188 214.459 960.622
-57.1217 214.473 960.622
-57.1214 214.472 960.622
-57.1212 214.471 960.622
-57.121 214.47 960.622
-68.5051 268.51 960.622
-68.4899 268.438 960.622
-68.4939 268.457 960.622
-68.4958 268.466 960.622
-68.5292 268.189 961.59
-57.2811 213.883 963.618
-57.281 213.883 963.617
-57.1765 214.284 961.622
-57.1878 214.337 961.622
-57.1869 214.333 961.622
-57.186 214.329 961.622
-57.1851 214.324 961.622
-68.5352 268.204 961.622
-68.53 268.179 961.622
-68.5314 268.185 961.622
-68.5297 268.177 961.622
-68.5304 268.181 961.622
-57.2811 213.882 963.62
-57.2812 213.883 963.619
-57.2811 213.883 963.619
-57.281 213.883 963.617
-57.2808 213.883 963.615
-57.2714 214.285 962.622
-57.2704 214.28 962.622
-68.613 268.123 962.622
-68.6174 268.145 962.622
-68.6191 268.152 962.622
-68.6171 268.143 962.622
-68.6158 268.137 962.622
-57.2813 213.882 963.622
-57.2812 213.882 963.622
-57.2814 213.883 963.622
-57.2814 213.883 963.622
-57.2814 213.882 963.622
-57.2814 213.882 963.622
-68.6302 267.756 963.622
-68.6538 267.868 963.622
-68.6229 268.134 962.703
-68.6193 268.129 962.675
-68.6199 268.137 962.664
-68.6181 268.133 962.655
-57.3479 213.34 965.532
-57.3462 213.339 965.516
-57.3441 213.339 965.494
-57.3413 213.341 965.459
-57.3558 213.786 964.622
-57.3552 213.784 964.622
-57.3546 213.781 964.622
-68.6798 267.542 964.622
-68.6933 267.606 964.622
-68.6877 267.579 964.622
-68.6922 267.6 964.622
-68.6822 267.114 965.598
-57.3475 213.297 965.622
-57.3529 213.323 965.622
-57.3523 213.32 965.622
-57.3516 213.317 965.622
-57.351 213.314 965.622
-57.3503 213.311 965.622
-57.3496 213.308 965.622
-68.6871 267.127 965.622
-68.683 267.107 965.622
-68.6841 267.113 965.622
-68.6828 267.106 965.622
-68.682 267.102 965.622
-57.4283 212.841 967.491
-57.4249 212.835 967.468
-57.4028 213.111 966.622
-57.402 213.107 966.622
-57.4011 213.102 966.622
-57.4002 213.098 966.622
-57.3993 213.094 966.622
-68.7576 267.012 966.622
-68.7475 266.964 966.622
-68.7502 266.977 966.622
-68.7427 266.941 966.622
-68.7448 266.951 966.622
-57.4114 211.808 969.61
-57.4113 211.809 969.607
-57.4401 212.464 968.455
-57.4353 212.462 968.407
-57.4382 212.829 967.622
-57.4373 212.825 967.622
-57.4363 212.82 967.622
-68.8029 266.778 967.622
-68.7904 266.718 967.622
-68.7866 266.7 967.622
-68.7845 266.69 967.622
-68.7871 266.703 967.622
-57.411 211.804 969.616
-57.4114 211.806 969.615
-57.4113 211.806 969.613
-57.4112 211.807 969.61
-57.4109 211.809 969.604
-57.4513 212.442 968.622
-57.4504 212.438 968.622
-68.8035 266.331 968.622
-68.795 266.29 968.622
-68.7923 266.278 968.622
-68.7909 266.271 968.622
-68.7927 266.28 968.622
-57.4112 211.802 969.622
-57.4111 211.802 969.622
-57.4116 211.804 969.622
-57.4115 211.804 969.622
-57.4115 211.803 969.622
-57.4115 211.803 969.622
-68.8703 266.198 969.622
-68.8697 266.196 969.622
-68.8692 266.193 969.622
-68.8744 266.218 969.622
-68.8727 266.21 969.622
-57.4766 211.663 970.622
-57.4759 211.66 970.622
-57.475 211.656 970.622
-57.4781 211.67 970.622
-57.4779 211.669 970.622
-57.4777 211.668 970.622
-68.9435 266.097 970.622
-68.9428 266.093 970.622
-68.952 266.137 970.622
-68.9487 266.121 970.622
-68.9466 266.111 970.622
-57.4665 210.769 972.505
-57.4637 210.767 972.48
-57.524 211.439 971.622
-57.5215 211.427 971.622
-57.5166 211.403 971.622
-57.5286 211.46 971.622
-69.0008 265.919 971.622
-69 265.915 971.622
-69.0109 265.967 971.622
-69.0071 265.949 971.622
-69.0045 265.937 971.622
-57.4867 210.411 973.514
-57.4843 210.408 973.495
-57.4811 210.405 973.468
-57.4618 210.694 972.622
-57.4736 210.75 972.622
-57.4729 210.746 972.622
-57.4721 210.743 972.622
-69.018 265.551 972.622
-69.0171 265.547 972.622
-69.0294 265.605 972.622
-69.025 265.585 972.622
-69.0221 265.571 972.622
-57.5252 210.138 974.528
-57.5226 210.134 974.511
-57.5193 210.129 974.486
-57.5144 210.123 974.448
-57.4928 210.392 973.622
-57.492 210.388 973.622
-57.4912 210.384 973.622
-69.0395 265.204 973.622
-69.0601 265.302 973.622
-69.0515 265.261 973.622
-69.0469 265.239 973.622
-69.0527 265.267 973.622
-57.5673 209.425 976.558
-57.556 209.843 975.509
-57.5528 209.839 975.485
-57.5216 210.079 974.622
-57.5324 210.13 974.622
-57.5317 210.127 974.622
-57.531 210.124 974.622
-69.128 265.174 974.622
-69.1268 265.169 974.622
-69.142 265.241 974.622
-69.1366 265.215 974.622
-69.133 265.198 974.622
-57.5684 209.416 976.59
-57.5677 209.416 976.584
-57.5668 209.415 976.575
-57.5654 209.416 976.56
-57.5631 209.417 976.531
-57.5645 209.833 975.623
-57.5638 209.829 975.623
-69.1622 264.887 975.623
