-56.771679 153.231064 1154.070000
-56.620752 160.187588 1153.070000
-56.961491 152.577937 1152.070000
-56.820749 159.592710 1151.070000
-57.156595 151.904803 1150.070000
-57.006681 159.618284 1149.070000
-57.356714 151.210341 1148.070000
-57.253470 157.804108 1147.070000
-57.561442 150.493273 1146.070000
-57.476967 156.855928 1145.070000
-57.770575 149.752415 1144.070000
-57.736832 154.651616 1143.070000
-57.982250 149.040164 1142.070000
-57.968185 153.548049 1141.070000
-58.197308 148.304100 1140.070000
-58.182064 153.273393 1139.070000
-58.415556 147.540760 1138.070000
-58.433196 151.465168 1137.070000
-58.636728 146.749219 1136.070000
-58.680029 149.798362 1135.070000
-58.860436 145.928651 1134.070000
-58.931760 147.790951 1133.070000
-59.086375 145.080082 1132.070000
-59.205117 144.311325 1131.070000
-59.317779 143.917947 1130.070000
-59.432091 143.394503 1129.070000
-59.549468 142.689971 1128.070000
-59.662173 142.344710 1127.070000
-59.779474 141.659054 1126.070000
-59.897336 140.700274 1125.070000
-60.008211 140.292060 1124.070000
-60.120722 139.770777 1123.070000
-60.230349 139.657289 1122.070000
-60.340804 139.458816 1121.070000
-60.449230 139.669386 1120.070000
-60.557004 139.748622 1119.070000
-60.667988 139.684654 1118.070000
-60.780337 139.520547 1117.070000
-60.892069 139.481990 1116.070000
-61.003875 140.273583 1115.070000
-61.116602 140.067162 1114.070000
-61.230124 140.150780 1113.070000
-61.344006 139.933594 1112.070000
-61.458275 139.610392 1111.070000
-61.574432 139.522533 1110.070000
-61.689785 139.723494 1109.070000
-61.805341 139.929666 1108.070000
-61.921127 140.126752 1107.070000
-62.037145 140.386344 1106.070000
-62.147954 139.938939 1105.070000
-62.263017 139.921152 1104.070000
-62.373066 139.386010 1103.070000
-62.490648 139.674250 1102.070000
-62.604796 139.564293 1101.070000
-62.717753 139.383605 1100.070000
-62.826645 138.860576 1099.070000
-62.941240 138.746525 1098.070000
-63.058358 138.886414 1097.070000
-63.181709 139.369611 1096.070000
-63.306121 139.869222 1095.070000
-63.411610 139.361359 1094.070000
-63.514781 138.752869 1093.070000
-63.629166 138.760948 1092.070000
-63.748229 138.979865 1091.070000
-63.860319 138.910060 1090.070000
-63.973102 138.858277 1089.070000
-64.084628 138.809412 1088.070000
-64.197023 138.782035 1087.070000
-64.297501 138.361871 1086.070000
-64.397847 137.957031 1085.070000
-64.512573 138.102014 1084.070000
-64.633748 138.423458 1083.070000
-64.742145 138.351226 1082.070000
-64.822417 137.482382 1081.070000
-64.924271 137.233387 1080.070000
-65.020061 136.863139 1079.070000
-65.136622 137.127886 1078.070000
-65.240183 136.995172 1077.070000
-65.331609 136.646624 1076.070000
-65.434120 136.576337 1075.070000
-65.540718 136.633037 1074.070000
-65.685831 137.617185 1073.070000
-65.782483 137.484493 1072.070000
-65.878193 137.334786 1071.070000
-65.925575 136.065280 1070.070000
-66.035866 136.304611 1069.070000
-66.134981 136.300190 1068.070000
-66.245658 136.570787 1067.070000
-66.400628 137.840886 1066.070000
-66.519904 138.291360 1065.070000
-66.585892 137.678965 1064.070000
-66.642854 136.817509 1063.070000
-66.752340 137.155378 1062.070000
-66.849134 137.226173 1061.070000
-66.989376 138.154493 1060.070000
-67.081004 138.134365 1059.070000
-67.187645 138.428468 1058.070000
-67.270754 138.315497 1057.070000
-67.357295 138.291012 1056.070000
-67.458236 138.574401 1055.070000
-67.532972 138.374898 1054.070000
-67.588796 137.885155 1053.070000
-67.704831 138.372874 1052.070000
-67.795263 138.502416 1051.070000
-67.921876 139.255941 1050.070000
-68.027086 139.668172 1049.070000
-68.113421 139.806273 1048.070000
-68.186536 139.728703 1047.070000
-68.173831 138.286194 1046.070000
-68.246669 138.273931 1045.070000
-68.319650 138.286353 1044.070000
-68.437480 139.038987 1043.070000
-68.509399 139.080633 1042.070000
-68.582217 139.157456 1041.070000
-68.591183 138.338003 1040.070000
-68.682990 138.721054 1039.070000
-68.722303 138.356098 1038.070000
-68.778046 138.277197 1037.070000
-68.827132 138.140967 1036.070000
-68.882249 138.111356 1035.070000
-68.939783 138.152056 1034.070000
-68.992071 138.132943 1033.070000
-68.990715 137.371496 1032.070000
-69.036176 137.306757 1031.070000
-69.098234 137.514178 1030.070000
-69.147157 137.562994 1029.070000
-69.211142 137.848152 1028.070000
-69.307794 138.626903 1027.070000
-69.343197 138.562667 1026.070000
-69.347004 138.078351 1025.070000
-69.359812 137.789573 1024.070000
-69.382634 137.642801 1023.070000
-69.413348 137.638368 1022.070000
-69.443292 137.652652 1021.070000
-69.478552 137.770411 1020.070000
-69.511026 137.894434 1019.070000
-69.532264 137.881830 1018.070000
-69.531633 137.590288 1017.070000
-69.519728 137.177528 1016.070000
-69.543136 137.278499 1015.070000
-69.577457 137.586426 1014.070000
-69.588813 137.605883 1013.070000
-69.593263 137.558663 1012.070000
-69.588925 137.421382 1011.070000
-69.557961 136.976468 1010.070000
-69.556401 136.950516 1009.070000
-69.555508 136.967018 1008.070000
-69.558426 137.063159 1007.070000
-69.529418 136.750965 1006.070000
-69.504705 136.551772 1005.070000
-69.482553 136.427226 1004.070000
-69.472688 136.501712 1003.070000
-69.461242 136.589310 1002.070000
-69.442433 136.612425 1001.070000
-69.437774 136.873981 1000.070000
-69.391046 136.573669 999.070000
-69.364299 136.590383 998.070000
-69.332798 136.577998 997.070000
-69.297898 136.552209 996.070000
-69.232638 136.133121 995.070000
-69.173247 135.821455 994.070000
-69.129175 135.762256 993.070000
-69.050947 135.242315 992.070000
-68.996759 135.111948 991.070000
-68.949285 135.094003 990.070000
-68.930441 135.516344 989.070000
-68.896007 135.751246 988.070000
-68.901549 136.593065 987.070000
-68.847660 136.609756 986.070000
-68.773884 136.368734 985.070000
-68.693704 136.046169 984.070000
-68.628216 135.966747 983.070000
-68.558977 135.859779 982.070000
-68.449443 135.182932 981.070000
-68.411023 135.577538 980.070000
-68.335195 135.437138 979.070000
-68.319936 136.257054 978.070000
-68.171437 134.990978 977.070000
-68.214131 136.884058 976.070000
-68.091743 136.102499 975.070000
-68.062592 136.868698 974.070000
-67.958554 136.442765 973.070000
-67.904734 136.861015 972.070000
-67.810935 136.644459 971.070000
-67.751615 137.019116 970.070000
-67.657352 136.850987 969.070000
-67.632045 137.822882 968.070000
-67.541743 137.763508 967.070000
-67.448508 137.634857 966.070000
-67.390653 138.212540 965.070000
-67.314804 138.467645 964.070000
-67.224620 138.468741 963.070000
-67.110629 138.036951 962.070000
-67.011924 137.895379 961.070000
-66.947957 138.482783 960.070000
-66.835558 138.078269 959.070000
-66.750280 138.321765 958.070000
-66.636509 137.981268 957.070000
-66.552772 138.277205 956.070000
-66.480317 138.764204 955.070000
-66.359259 138.333692 954.070000
-66.270311 138.534431 953.070000
-66.171037 138.543788 952.070000
-66.075935 138.677253 951.070000
-65.991811 139.074667 950.070000
-65.885263 138.932863 949.070000
-65.793068 139.166573 948.070000
-65.687030 139.068310 947.070000
-65.591299 139.279980 946.070000
-65.467820 138.739463 945.070000
-65.377432 139.083182 944.070000
-65.274088 139.087243 943.070000
-65.180302 139.371841 942.070000
-65.086144 139.666627 941.070000
-64.962127 139.051822 940.070000
-64.855304 138.960757 939.070000
-64.751274 138.949663 938.070000
-64.649256 139.013072 937.070000
-64.560979 139.476298 936.070000
-64.450193 139.275475 935.070000
-64.345783 139.247717 934.070000
-64.239584 139.150953 933.070000
-64.137125 139.163775 932.070000
-64.052859 139.860768 931.070000
-63.950829 139.918886 930.070000
-63.841067 139.503986 929.070000
-63.739456 139.528688 928.070000
-63.638489 139.519525 927.070000
-63.543846 139.912232 926.070000
-63.438567 139.714568 925.070000
-63.328219 139.109253 924.070000
-63.227104 138.953639 923.070000
-63.129338 138.944173 922.070000
-63.029800 138.791592 921.070000
-62.939214 139.106627 920.070000
-62.846380 139.247395 919.070000
-62.753297 139.358805 918.070000
-62.660267 139.442330 917.070000
-62.564762 139.258982 916.070000
-62.470493 139.030774 915.070000
-62.382036 139.245692 914.070000
-62.293726 139.364052 913.070000
-62.205337 139.374343 912.070000
-62.119460 139.578087 911.070000
-62.033583 139.651805 910.070000
-61.949742 139.797685 909.070000
-61.865950 139.803866 908.070000
-61.784967 140.200233 907.070000
-61.704605 140.342830 906.070000
-61.624537 140.468221 905.070000
-61.547315 140.789592 904.070000
-61.470010 140.833446 903.070000
-61.393907 140.813681 902.070000
-61.319866 141.021555 901.070000
-61.247737 141.103397 900.070000
-61.176815 141.733720 899.070000
-61.106772 142.258854 898.070000
-61.038501 142.456182 897.070000
-60.972138 142.534461 896.070000
-60.907735 142.567406 895.070000
-60.845325 142.999512 894.070000
-60.784829 142.479614 893.070000
-60.726383 142.487848 892.070000
-60.670026 142.389033 891.070000
-60.614003 142.832825 890.070000
-60.559850 143.102633 889.070000
-60.506652 143.779831 888.070000
-60.456502 144.259703 887.070000
-60.405588 144.908142 886.070000
-60.368224 143.975697 885.070000
-60.327518 143.739129 884.070000
-60.289314 143.890416 883.070000
-60.242047 145.262314 882.070000
-60.203854 145.857749 881.070000
-60.165946 146.649127 880.070000
-60.132306 147.249057 879.070000
-60.103609 147.546388 878.070000
-60.077964 147.821752 877.070000
-60.056227 147.985651 876.070000
-60.039309 147.943438 875.070000
-60.029009 147.463251 874.070000
-60.021541 146.976579 873.070000
-60.008330 147.435055 872.070000
-60.002761 147.438719 871.070000
-59.990331 148.459413 870.070000
-59.987643 148.827095 869.070000
-59.990713 148.917456 868.070000
-59.995400 149.146123 867.070000
-59.994853 150.441621 866.070000
-60.009223 150.516642 865.070000
-60.024623 150.777510 864.070000
-60.044419 150.966844 863.070000
-60.065830 151.376890 862.070000
-60.094570 151.398489 861.070000
-60.131693 150.905268 860.070000
-60.169854 150.671366 859.070000
-60.212416 150.395642 858.070000
-60.254992 150.559008 857.070000
-60.299261 150.947567 856.070000
-60.347887 151.315319 855.070000
-60.401378 151.581409 854.070000
-60.461589 151.534935 853.070000
-60.524027 151.978558 852.070000
-60.589867 152.368549 851.070000
-60.663202 152.697286 850.070000
-60.740200 152.868760 849.070000
-60.820370 153.450174 848.070000
-60.905550 153.756830 847.070000
-60.995785 153.728334 846.070000
-61.090391 153.594744 845.070000
-61.186758 153.667913 844.070000
-61.287938 153.369672 843.070000
-61.391781 152.510404 842.070000
-61.498227 152.003489 841.070000
-61.608629 152.697057 840.070000
-61.722502 152.792652 839.070000
-61.840962 153.122367 838.070000
-61.961403 153.277736 837.070000
-62.085026 153.370457 836.070000
-62.213578 153.572786 835.070000
-62.347819 154.077189 834.070000
-62.482202 154.190350 833.070000
-62.617709 154.225474 832.070000
-62.756198 154.343720 831.070000
-62.897617 154.465632 830.070000
-63.044210 154.772136 829.070000
-63.186828 154.613391 828.070000
-63.330951 154.405326 827.070000
-63.476094 154.198273 826.070000
-63.622679 153.933795 825.070000
-63.773887 153.904326 824.070000
-63.924730 153.742075 823.070000
-64.077491 153.658090 822.070000
-64.229344 153.458354 821.070000
-64.387816 153.494282 820.070000
-64.547076 153.490807 819.070000
-64.726475 154.154088 818.070000
-64.901868 154.606382 817.070000
-65.081306 155.152347 816.070000
-65.261971 155.650527 815.070000
-65.436709 155.840601 814.070000
-65.592079 155.461308 813.070000
-65.773480 155.808585 812.070000
-65.948450 155.949321 811.070000
-66.136343 156.411706 810.070000
-66.294323 156.060331 809.070000
-66.463475 156.004029 808.070000
-66.634504 155.989677 807.070000
-66.837638 156.721413 806.070000
-67.009591 156.704410 805.070000
-67.172960 156.508899 804.070000
-67.349207 156.580596 803.070000
-67.514739 156.440573 802.070000
-67.692821 156.571918 801.070000
-67.871355 156.711935 800.070000
-68.085155 157.533877 799.070000
-68.280360 157.985387 798.070000
-68.467349 158.270429 797.070000
-68.637600 158.272806 796.070000
-68.792073 157.984897 795.070000
-68.968459 158.132804 794.070000
-69.174230 158.762367 793.070000
-69.351245 158.923298 792.070000
-69.552042 159.476863 791.070000
-69.719550 159.507207 790.070000
-69.902710 159.805255 789.070000
-70.080657 160.047854 788.070000
-70.253779 160.227661 787.070000
-70.410209 160.181569 786.070000
-70.596452 160.587835 785.070000
-70.758094 160.664476 784.070000
-70.916620 160.720463 783.070000
-71.056714 160.566224 782.070000
-71.188796 160.333497 781.070000
-71.335869 160.340194 780.070000
-71.494157 160.538829 779.070000
-71.709376 161.488066 778.070000
-71.850013 161.492624 777.070000
-71.984736 161.459004 776.070000
-72.129977 161.588853 775.070000
-72.307394 162.166346 774.070000
-72.428228 162.075074 773.070000
-72.540771 161.916876 772.070000
-72.653096 161.810407 771.070000
-72.809013 162.242105 770.070000
-72.950957 162.576100 769.070000
-73.121970 163.267441 768.070000
-73.229982 163.265850 767.070000
-73.329503 163.211275 766.070000
-73.429073 163.204232 765.070000
-73.490675 162.812202 764.070000
-73.643907 163.489871 763.070000
-73.723292 163.396620 762.070000
-73.835107 163.720195 761.070000
-73.879820 163.352798 760.070000
-73.955803 163.376254 759.070000
-74.027387 163.399803 758.070000
-74.143454 163.966703 757.070000
-74.217442 164.131392 756.070000
-74.302302 164.454405 755.070000
-74.342253 164.345862 754.070000
-74.382634 164.301150 753.070000
-74.428713 164.374605 752.070000
-74.440186 164.136348 751.070000
-74.553678 165.036781 750.070000
-74.652928 165.844522 749.070000
-74.705197 166.223389 748.070000
-74.708716 166.152486 747.070000
-74.648487 165.480567 746.070000
-74.646532 165.480747 745.070000
-74.681917 165.938291 744.070000
-74.702377 166.303235 743.070000
-74.701469 166.513100 742.070000
-74.696622 166.746356 741.070000
-74.627624 166.387272 740.070000
-74.600222 166.548928 739.070000
-74.556788 166.606767 738.070000
-74.529604 166.911988 737.070000
-74.489766 167.158736 736.070000
-74.458312 167.568967 735.070000
-74.406569 167.857014 734.070000
-74.301150 167.631103 733.070000
-74.234133 167.932018 732.070000
-74.045010 166.956928 731.070000
-73.944424 167.044110 730.070000
-73.862567 167.426312 729.070000
-73.779307 167.900482 728.070000
-73.720838 168.758947 727.070000
-73.578564 168.757987 726.070000
-73.408994 168.516095 725.070000
-73.243045 168.428693 724.070000
-73.057062 168.223368 723.070000
-72.889884 168.326507 722.070000
-72.714509 168.445684 721.070000
-72.535265 168.630673 720.070000
-72.364664 169.051284 719.070000
-72.161421 169.174876 718.070000
-71.955571 169.414765 717.070000
-71.752202 169.785353 716.070000
-71.509993 169.783258 715.070000
-71.222924 169.275468 714.070000
-70.963642 169.289739 713.070000
-70.691827 169.260184 712.070000
-70.408256 169.202365 711.070000
-70.118177 169.199753 710.070000
-69.832348 169.437587 709.070000
-69.546116 169.849302 708.070000
-69.224285 169.845376 707.070000
-68.890856 169.854793 706.070000
-66.013206 168.943064 698.595000
