-128.052  90.0304  33.0303
-129.067  94.0679  34.0303
-129.389  93.8599  35.0303
-129.628  94.2408  36.0303
-129.882  94.6257  37.0303
-128.403  95.2974  38.0303
-125.264  95.0134  39.0303
-126.036  94.5524  40.0303
-125.703  94.9877  41.0303
-124.406  94.0806  42.0303
-125.306  93.5746  43.0303
-125.204  93.838  44.0303
-122.446  94.2268  45.0303
-122.744  94.5097  46.0303
-120.69  94.9583  47.0303
-121.824  95.1831  48.0303
-123.414  93.269  49.0303
-124.04  93.4293  50.0303
-122.165  93.8127  51.0303
-122.614  93.8609  52.0303
-121.6  93.5763  53.0303
-120.191  93.8586  54.0303
-119.358  93.6957  55.0303
-118.951  93.2109  56.0303
-116.646  95.0074  57.0303
-115.394  94.0543  58.0303
-114.487  94.386  59.0303
-113.948  94.2473  60.0303
-112.159  94.2142  61.0303
-110.1  94.9788  62.0303
-109.305  94.1369  63.0303
-107.01  94.188  64.0303
-105.491  94.7799  65.0303
-103.963  93.9197  66.0303
-103.23  93.5419  67.0303
-101.568  93.6364  68.0303
-99.8156  94.5329  69.0303
-99.2934  93.7758  70.0303
-98.6647  93.1687  71.0303
-97.8156  93.9979  72.0303
-97.2546  93.4386  73.0303
-96.5918  93.5989  74.0303
-95.9293  93.0128  75.0303
-95.9963  92.513  76.0303
-96.205  92.0882  77.0303
-95.6905  92.3813  78.0303
-95.6961  92.6527  79.0303
-95.7915  93.655  80.0303
-96.0081  94.0012  81.0303
-96.1214  92.9502  82.0303
-95.5457  92.0405  83.0303
-96.2467  91.6945  84.0303
-95.7153  90.6553  85.0303
-95.2892  90.3435  86.0303
-95.2024  90.8694  87.0303
-95.139  91.4112  88.0303
-94.8981  91.4183  89.0303
-95.2741  91.3013  90.0303
-94.6726  91.3562  91.0303
-93.9015  90.7317  92.0303
-94.3766  91.0708  93.0303
-93.8891  90.1861  94.0303
-94.5362  90.7212  95.0303
-94.2047  90.0685  96.0303
-94.8427  90.5182  97.0303
-95.2817  90.2732  98.0303
-94.8223  90.3409  99.0303
-94.9263  90.2489  100.03
-95.4262  90.7941  101.03
-95.7572  90.6501  102.03
-96.0882  90.5531  103.03
-96.4192  90.4671  104.03
-97.3288  90.205  105.03
-97.8338  90.8017  106.03
-98.5794  90.6733  107.03
-99.2707  90.6001  108.03
-99.5856  90.6283  109.03
-100.461  91.2838  110.03
-100.943  91.4021  111.03
-101.305  91.6214  112.03
-102.838  93.8389  113.03
-103.838  94.6764  114.03
-105.493  94.6911  115.03
-107.209  95.387  116.03
-108.864  96.2563  117.03
-109.944  97.1518  118.03
-111.195  97.3283  119.03
-112.522  97.4957  120.03
-113.237  98.2775  121.03
-114.355  97.7067  122.03
-115.428  97.7215  123.03
-116.867  96.9197  124.03
-118.105  96.2688  125.03
-118.305  96.3308  126.03
-118.964  96.565  127.03
-119.271  95.9615  128.03
-119.431  95.9985  129.03
-119.762  95.9715  130.03
-120.011  96.0015  131.03
-120.071  96.1665  132.03
-120.395  95.608  133.03
-120.575  95.582  134.03
-120.725  95.588  135.03
-121.002  95.0284  136.03
-121.064  95.1404  137.03
-121.2  95.2534  138.03
-121.33  95.3484  139.03
-120.887  95.1664  140.03
-120.767  95.8529  141.03
-121.098  95.2554  142.03
-121.21  95.3424  143.03
-121.56  94.8429  144.03
-121.689  95.002  145.03
-121.239  94.7007  146.03
-121.346  94.6267  147.03
-121.457  94.8307  148.03
-121.776  94.3555  149.03
-121.818  94.4455  150.03
-121.86  94.5335  151.03
-122.024  94.4635  152.03
-121.625  94.2144  153.03
-121.667  94.3774  154.03
-121.892  93.8787  155.03
-121.997  93.9007  156.03
-121.917  94.5824  157.03
-121.64  95.9599  158.03
-121.754  95.9719  159.03
-122.211  94.8064  160.03
-122.459  94.3707  161.03
-122.6  94.3507  162.03
-122.766  94.2527  163.03
-122.783  94.2817  164.03
-122.745  94.3577  165.03
-122.82  94.3907  166.03
-122.945  94.4067  167.03
-122.446  94.2863  168.03
-122.513  94.3413  169.03
-122.573  94.3963  170.03
-122.629  94.4493  171.03
-122.688  94.4833  172.03
-122.75  94.5033  173.03
-122.826  94.4763  174.03
-122.913  94.4133  175.03
-122.419  94.2251  176.03
-122.519  94.2151  177.03
-122.592  94.3251  178.03
-122.044  94.4233  179.03
-122.267  93.7372  180.03
-121.749  93.33  181.03
-121.951  92.5593  182.03
-121.339  92.6332  183.03
-120.758  92.6049  184.03
-120.228  92.4025  185.03
-119.673  92.219  186.03
-119.072  92.0585  187.03
-119.108  92.0435  188.03
-118.539  92.0948  189.03
-117.981  92.1332  190.03
-118.079  92.1762  191.03
-117.518  92.1056  192.03
-116.953  91.2377  193.03
-117.042  90.4374  194.03
-117.13  90.3904  195.03
-116.546  90.3557  196.03
-116.543  90.5517  197.03
-116.558  90.6927  198.03
-116.032  90.4505  199.03
-116.152  90.2535  200.03
-116.173  89.6183  201.03
-116.187  89.6833  202.03
-115.597  88.2079  203.03
-115.675  87.4456  204.03
-115.717  87.2836  205.03
-115.76  86.4093  206.03
-115.786  86.4623  207.03
-115.813  86.5183  208.03
-115.894  86.6203  209.03
-115.977  86.7243  210.03
-115.245  86.6456  211.03
-115.211  85.8345  212.03
-115.287  85.7425  213.03
-115.375  85.6505  214.03
-115.471  84.9913  215.03
-115.581  85.0683  216.03
-115.642  84.8803  217.03
-115.678  83.9211  218.03
-115.732  83.9171  219.03
-115.788  83.9831  220.03
-115.858  83.9301  221.03
-115.921  83.1259  222.03
-115.994  83.0459  223.03
-116.054  82.2607  224.03
-116.152  82.2308  225.03
-117.043  82.2149  226.03
-117.134  82.2129  227.03
-117.214  82.2139  228.03
-117.26  82.1179  229.03
-117.283  81.9579  230.03
-117.367  81.9249  231.03
-117.495  81.9879  232.03
-118.376  81.2406  233.03
-118.44  80.3944  234.03
-118.534  80.2444  235.03
-118.672  80.0814  236.03
-119.606  80.0515  237.03
-119.723  80.1315  238.03
-119.853  80.1015  239.03
-120.001  79.9235  240.03
-120.982  79.1384  241.03
-121.104  79.1344  242.03
-121.221  79.1124  243.03
-121.404  77.6348  244.03
-121.506  77.5678  245.03
-122.439  77.5273  246.03
-122.536  77.4283  247.03
-122.65  77.3103  248.03
-122.743  77.2513  249.03
-122.776  77.3703  250.03
-122.811  77.4453  251.03
-122.9  76.6537  252.03
-122.946  76.5707  253.03
-123.065  75.7792  254.03
-123.129  75.7122  255.03
-123.158  75.7302  256.03
-123.195  75.7442  257.03
-123.303  75.7232  258.03
-123.406  75.6932  259.03
-123.504  74.8656  260.03
-123.552  74.7536  261.03
-123.589  74.8036  262.03
-122.748  74.7988  263.03
-122.853  74.6888  264.03
-122.959  74.5778  265.03
-123.002  74.5098  266.03
-123.043  74.4438  267.03
-123.119  73.8295  268.03
-123.157  73.9385  269.03
-122.297  73.8116  270.03
-122.378  72.2789  271.03
-122.395  72.2639  272.03
-122.411  72.2489  273.03
-122.47  72.2789  274.03
-122.513  73.0287  275.03
-122.574  72.9837  276.03
-121.727  72.892  277.03
-121.791  72.839  278.03
-121.857  72.791  279.03
-121.914  72.842  280.03
-121.967  72.931  281.03
-122.011  72.889  282.03
-122.052  72.786  283.03
-121.224  72.7341  284.03
-121.322  72.0118  285.03
-121.394  72.0458  286.03
-121.451  72.1088  287.03
-121.505  72.0778  288.03
-121.558  71.9788  289.03
-121.581  71.9288  290.03
-121.58  71.9178  291.03
-121.607  71.9538  292.03
-121.66  72.0348  293.03
-121.702  72.0408  294.03
-121.733  71.9658  295.03
-120.829  71.9018  296.03
-120.82  71.8358  297.03
-120.831  71.1457  298.03
-120.903  71.2947  299.03
-120.966  71.3717  300.03
-121.012  71.3277  301.03
-121.015  71.2657  302.03
-120.934  71.1687  303.03
-120.891  71.1107  304.03
-120.939  71.1417  305.03
-120.977  71.1757  306.03
-120.988  71.2177  307.03
-120.99  71.2367  308.03
-120.96  71.1807  309.03
-120.922  71.1767  310.03
-120.849  71.3967  311.03
-121.714  71.5475  312.03
-121.696  71.3825  313.03
-121.677  71.2365  314.03
-121.661  71.2365  315.03
-121.644  71.2435  316.03
-121.619  71.3225  317.03
-121.589  71.3985  318.03
-121.539  71.4615  319.03
-121.489  71.5175  320.03
-121.449  71.3105  321.03
-121.409  71.1035  322.03
-121.356  71.0775  323.03
-121.303  71.0555  324.03
-121.217  71.2075  325.03
-121.13  71.3715  326.03
-121.026  71.2455  327.03
-120.92  71.0915  328.03
-120.815  71.1145  329.03
-120.712  71.1635  330.03
-120.568  71.2145  331.03
-120.416  71.2655  332.03
-120.368  71.1245  333.03
-120.344  70.9355  334.03
-120.264  70.8765  335.03
-120.167  71.5668  336.03
-120.093  71.6308  337.03
-120.027  71.0145  338.03
-119.891  70.8875  339.03
-119.723  70.6625  340.03
-119.563  70.6055  341.03
-119.406  70.6335  342.03
-119.292  70.6705  343.03
-119.203  70.7125  344.03
-119.053  71.3858  345.03
-118.859  71.2938  346.03
-118.667  71.1738  347.03
-118.476  71.0318  348.03
-118.322  71.0638  349.03
-118.188  71.8941  350.03
-118.06  71.8491  351.03
-117.937  71.6291  352.03
-117.736  71.4691  353.03
-117.439  71.3841  354.03
-117.206  71.3111  355.03
-117.064  71.2551  356.03
-116.883  71.9084  357.03
-116.638  71.8494  358.03
-116.384  71.7794  359.03
-116.114  71.6884  360.03
-115.867  71.6244  361.03
-115.673  71.6174  362.03
-115.455  71.5724  363.03
-115.172  71.4254  364.03
-114.017  71.2532  365.03
-113.824  70.9692  366.03
-113.611  70.7472  367.03
-113.319  70.7712  368.03
-113.037  70.7572  369.03
-111.911  70.5746  370.03
-111.669  70.3596  371.03
-111.366  70.0796  372.03
-110.171  69.8565  373.03
-109.857  69.7585  374.03
-109.548  69.6595  375.03
-108.417  69.5961  376.03
-108.176  69.4771  377.03
-107.872  69.3241  378.03
-106.678  69.2421  379.03
-106.42  68.8811  380.03
-105.198  67.8954  381.03
-104.313  67.6104  382.03
-102.409  66.7259  383.03
-102.137  66.7479  384.03
-101.853  66.0989  385.03
-100.408  65.387  386.03
-99.9485  65.227  387.03
-98.751  64.9424  388.03
-98.529  64.4584  389.03
-97.278  64.324  390.03
-96.9351  64.075  391.03
-96.5161  63.91  392.03
-95.15  63.9408  393.03
-94.713  63.7048  394.03
-94.276  63.4368  395.03
-92.822  63.4858  396.03
-92.28  63.3638  397.03
-91.858  63.0428  398.03
-91.492  62.6298  399.03
-90.946  62.4838  400.03
-89.2195  61.9988  401.03
-88.6845  61.8288  402.03
-88.2205  61.5468  403.03
-87.7425  61.3198  404.03
-86.7735  59.0536  405.03
-87.2325  58.6538  406.03
-86.7048  58.4698  407.03
-86.2653  58.1928  408.03
-85.9147  57.8198  409.03
-85.5042  57.5758  410.03
-85.9989  57.2789  411.03
-85.5911  57.1399  412.03
-86.2506  56.7701  413.03
-85.8828  56.5901  414.03
-86.4162  56.2573  415.03
-86.0093  56.0273  416.03
-86.9511  57.6536  417.03
-86.403  56.0159  418.03
-87.0854  56.583  419.03
-87.771  57.1168  420.03
-87.411  56.2124  421.03
-88.1172  55.8797  422.03
-88.908  55.4408  423.03
-88.6787  55.1438  424.03
-89.216  55.0247  425.03
-89.8225  54.8325  426.03
-90.5696  54.4701  427.03
-90.3513  54.1621  428.03
-91.1123  54.0167  429.03
-91.8788  53.177  430.03
-92.6189  52.3558  431.03
-92.3521  52.2248  432.03
-93.0516  52.1981  433.03
-93.8071  51.4631  434.03
-93.6805  51.0041  435.03
-94.5555  50.625  436.03
-95.4121  49.9089  437.03
-95.1198  50.5113  438.03
-95.8746  50.729  439.03
-96.6268  50.9702  440.03
-96.6038  50.6332  441.03
-97.5896  50.4157  442.03
-97.3181  50.3097  443.03
-97.017  50.2327  444.03
-97.9381  49.6301  445.03
-97.6374  50.2646  446.03
-97.5191  50.1926  447.03
-97.4122  50.1196  448.03
-97.3362  49.9666  449.03
-97.2684  49.7916  450.03
-97.0397  49.7416  451.03
-96.7602  49.7316  452.03
-96.5555  49.6146  453.03
-95.3882  49.2897  454.03
-95.2244  49.7483  455.03
-94.2464  49.3196  456.03
-94.1014  49.3746  457.03
-92.8061  50.187  458.03
-91.7075  50.102  459.03
-90.668  49.9071  460.03
-89.5409  50.4298  461.03
-88.4489  50.2537  462.03
-88.3524  50.0807  463.03
-87.2886  50.5303  464.03
-86.198  50.5643  465.03
-85.0462  51.5933  466.03
-84.0064  51.6715  467.03
-83.0747  51.4892  468.03
-83.0569  52.046  469.03
-82.0157  52.0026  470.03
-81.8274  52.0546  471.03
-81.5272  52.3046  472.03
-81.3955  52.3236  473.03
-82.3525  52.083  474.03
-82.353  52.002  475.03
-83.2314  52.1277  476.03
-84.1088  52.2335  477.03
-84.9831  52.2727  478.03
-85.819  51.6612  479.03
-86.468  51.9003  480.03
-87.255  51.3323  481.03
-88.3083  51.1033  482.03
-89.3264  50.9758  483.03
-90.205  51.212  484.03
-91.059  51.5016  485.03
-90.837  51.8826  486.03
-91.5996  52.3168  487.03
-92.753  51.476  488.03
-92.8246  51.207  489.03
-93.6731  51.4334  490.03
-93.5701  51.4934  491.03
-94.4136  51.9153  492.03
-94.3099  52.1423  493.03
-94.264  52.2003  494.03
-94.218  52.2593  495.03
-95.3591  52.3468  496.03
-95.5589  52.2208  497.03
-95.4295  52.3508  498.03
-95.4399  51.8037  499.03
-95.2912  51.9417  500.03
-95.1425  52.0777  501.03
-94.2948  51.6816  502.03
-94.4338  51.4616  503.03
-94.3663  51.6176  504.03
-94.298  51.7766  505.03
-94.1555  51.9406  506.03
-93.9945  52.1056  507.03
-93.903  52.0726  508.03
-92.872  51.7852  509.03
-92.9309  51.6312  510.03
-93.0366  51.4552  511.03
-92.8765  51.6792  512.03
-92.5999  52.0792  513.03
-91.5455  51.9906  514.03
-91.5512  51.9206  515.03
-91.5887  51.7596  516.03
-91.6446  51.5456  517.03
-91.5443  51.5686  518.03
-90.367  51.5978  519.03
-90.3623  51.0333  520.03
-90.2818  51.1513  521.03
-90.2697  51.1473  522.03
-90.2093  51.7338  523.03
-90.2514  51.5968  524.03
-90.2843  51.4388  525.03
-90.1585  51.4828  526.03
-89.835  51.7788  527.03
-89.6688  51.8668  528.03
-89.833  50.9623  529.03
-90.0072  50.1247  530.03
-90.0868  50.1017  531.03
-90.0639  50.1637  532.03
-89.8447  50.3897  533.03
-89.6714  50.5127  534.03
-89.6024  50.4027  535.03
-89.5739  50.2687  536.03
-89.6502  50.0717  537.03
-89.699  49.9277  538.03
-89.6574  49.9577  539.03
-89.675  49.3452  540.03
-89.3733  49.6772  541.03
-89.263  49.1857  542.03
-89.5518  48.0932  543.03
-89.6885  47.7562  544.03
-89.5641  47.7632  545.03
-89.4377  47.7862  546.03
-89.2902  47.9712  547.03
-89.15  48.1442  548.03
-89.1171  48.1462  549.03
-89.2167  47.4186  550.03
-90.3381  47.4567  551.03
-90.5428  46.6192  552.03
-90.4058  46.6672  553.03
-90.2667  46.7162  554.03
-90.087  46.7922  555.03
-89.9052  46.8692  556.03
-90.0843  46.5712  557.03
-90.4173  45.5417  558.03
-90.3125  45.7327  559.03
-90.043  46.6922  560.03
-89.9664  46.7552  561.03
-89.9024  46.7812  562.03
-89.8158  46.6732  563.03
-89.8473  45.8337  564.03
-89.8794  45.6757  565.03
-90.0699  44.8123  566.03
-90.0044  44.8403  567.03
-89.892  44.9353  568.03
-89.8505  44.9963  569.03
-89.8386  45.0413  570.03
-89.8709  44.9493  571.03
-89.925  44.7903  572.03
-89.9672  44.0058  573.03
-89.932  43.2633  574.03
-89.8876  43.2073  575.03
-89.9205  43.1433  576.03
-89.8271  43.8748  577.03
-89.8553  43.9808  578.03
-90.0479  43.2963  579.03
-90.1536  43.2323  580.03
-90.2246  42.5048  581.03
-90.1351  41.8144  582.03
-90.1505  41.0509  583.03
-90.1702  40.8969  584.03
-90.3587  40.0734  585.03
-90.4837  39.9904  586.03
-90.5389  39.9914  587.03
-90.48  40.1324  588.03
-90.4403  40.1994  589.03
-90.4358  40.1344  590.03
-90.3948  40.0424  591.03
-90.2747  39.8904  592.03
-90.1919  39.7544  593.03
-90.2027  39.6594  594.03
-90.1924  39.6054  595.03
-90.1153  39.6774  596.03
-90.0758  39.7474  597.03
-90.2224  39.1129  598.03
-90.3533  38.4485  599.03
-90.2867  38.3474  600.03
-90.3288  37.546  601.03
-90.1519  37.449  602.03
-90.1172  36.6525  603.03
-90.0037  37.263  604.03
-90.013  37.186  605.03
-90.0126  37.28  606.03
-90.012  37.371  607.03
-90.1311  36.6815  608.03
-90.1267  36.6925  609.03
-89.9347  36.6285  610.03
-89.7418  36.5635  611.03
-89.7396  36.2985  612.03
-89.7457  36.0245  613.03
-89.6962  36.0525  614.03
-89.6424  36.1035  615.03
-89.6499  36.1475  616.03
-89.6654  36.1915  617.03
-88.4988  35.9068  618.03
-88.5345  35.8018  619.03
-88.4515  35.6898  620.03
-88.4538  34.8743  621.03
-88.4417  34.7263  622.03
-88.456  34.5683  623.03
-88.4596  34.5793  624.03
-88.4595  34.6463  625.03
-88.6628  33.9087  626.03
-87.564  33.6493  627.03
-87.4955  33.5913  628.03
-87.3886  33.5364  629.03
-87.3244  33.3893  630.03
-87.3833  32.484  631.03
-87.3246  32.339  632.03
-87.2538  32.229  633.03
-87.3729  31.4706  634.03
-86.1181  31.9974  635.03
-86.1669  32.0014  636.03
-86.1821  32.0224  637.03
-86.0221  31.5724  638.03
-85.5159  32.0614  639.03
-85.3458  30.9095  640.03
-85.1864  30.9085  641.03
-85.0075  31.0075  642.03
-84.8031  31.2385  643.03
-84.7287  31.4035  644.03
-84.8582  31.4645  645.03
-85.0972  31.8324  646.03
-87.0369  30.9543  647.03
-87.3709  30.9076  648.03
-87.2976  30.7796  649.03
-87.211  30.6336  650.03
-87.0922  30.4456  651.03
-87.11  29.5853  652.03
-87.1434  29.5253  653.03
-88.4509  29.6712  654.03
-88.529  29.6852  655.03
-88.5828  29.7032  656.03
-88.5261  29.7422  657.03
-88.4687  29.7422  658.03
-88.4075  29.5162  659.03
-88.4528  28.6006  660.03
-88.3507  28.4876  661.03
-88.3721  27.6781  662.03
-87.042  28.1649  663.03
-87.0971  28.1439  664.03
-87.0919  28.2539  665.03
-85.8072  28.1945  666.03
-84.5416  27.9134  667.03
-83.2116  28.3643  668.03
-81.8417  28.123  669.03
-79.1902  27.8482  670.03
-75.3261  28.4149  671.03
-71.549  29.1851  672.03
-67.9881  30.2504  673.03
-64.4008  30.8005  674.03
-62.0476  31.285  675.03
-59.8846  32.5434  676.03
-58.7439  32.712  677.03
-57.6017  32.8712  678.03
-56.5922  33.7743  679.03
-55.3713  34.025  680.03
-55.447  33.883  681.03
-55.5684  33.7313  682.03
-55.6767  33.7034  683.03
-55.5603  33.045  684.03
-55.7013  33.0695  685.03
-55.8603  33.0955  686.03
-56.0085  33.0153  687.03
-56.151  32.8771  688.03
-56.2145  32.7178  689.03
-56.2283  32.5452  690.03
-56.1421  31.7101  691.03
-56.3612  31.5614  692.03
-55.1378  26.9795  693.03
-55.1262  26.1324  694.03
-55.4179  26.1815  695.03
-57.3205  31.1529  696.03
