13.2424  229.22  33.0303
0.0935732  224.523  34.0303
2.15695  225.234  35.0303
4.21641  226.601  36.0303
3.40201  226.548  37.0303
5.68525  226.688  38.0303
7.5807  226.176  39.0303
6.8082  225.715  40.0303
7.68013  224.821  41.0303
8.44438  223.85  42.0303
7.07784  222.807  43.0303
7.72783  221.657  44.0303
6.72192  220.977  45.0303
5.48121  218.283  46.0303
2.84202  216.527  47.0303
-2.25401  210.719  48.0303
-9.3154  205.315  49.0303
-12.9849  202.485  50.0303
-13.6607  200.457  51.0303
-16.6419  198.008  52.0303
-19.0469  196.13  53.0303
-22.0166  193.735  54.0303
-24.5177  191.834  55.0303
-26.426  190.577  56.0303
-27.7759  189.909  57.0303
-31.888  188.019  58.0303
-35.5816  184.76  59.0303
-37.1899  183.585  60.0303
-40.4491  182.138  61.0303
-42.473  180.531  62.0303
-45.7366  179.127  63.0303
-48.8774  177.634  64.0303
-49.7966  177.074  65.0303
-52.8366  175.54  66.0303
-55.4245  174.564  67.0303
-57.5386  174.076  68.0303
-60.06  172.948  69.0303
-63.5226  171.783  70.0303
-65.7611  170.752  71.0303
-67.978  169.664  72.0303
-70.8086  168.881  73.0303
-72.5754  168.233  74.0303
-75.2001  167.184  75.0303
-77.2105  165.767  76.0303
-79.6057  165.302  77.0303
-82.1998  164.11  78.0303
-83.9674  162.576  79.0303
-85.7797  162.564  80.0303
-87.7271  162.558  81.0303
-89.6828  162.522  82.0303
-91.0374  162.349  83.0303
-93.0776  161.604  84.0303
-94.7206  160.036  85.0303
-96.1793  159.122  86.0303
-97.1692  158.922  87.0303
-98.7119  158.784  88.0303
-100.203  158.762  89.0303
-101.098  159.389  90.0303
-101.709  158.621  91.0303
-102.283  158.554  92.0303
-103.144  158.208  93.0303
-104.011  157.847  94.0303
-105.081  159.102  95.0303
-105.555  158.964  96.0303
-106.58  158.705  97.0303
-107.019  158.46  98.0303
-107.166  158.348  99.0303
-106.687  158.281  100.03
-106.979  158.146  101.03
-107.31  158.002  102.03
-107.059  157.92  103.03
-106.807  157.84  104.03
-107.122  157.754  105.03
-106.848  157.661  106.03
-106.426  157.68  107.03
-105.946  157.734  108.03
-105.088  157.868  109.03
-104.058  158.032  110.03
-102.787  158.302  111.03
-101.479  157.915  112.03
-100.519  158.1  113.03
-99.9273  157.498  114.03
-99.395  157.435  115.03
-98.9773  157.249  116.03
-98.5804  157.147  117.03
-98.7394  157.195  118.03
-98.6047  156.381  119.03
-98.7513  154.83  120.03
-98.6391  154.672  121.03
-99.0931  154.664  122.03
-98.9782  155.088  123.03
-99.7222  154.822  124.03
-99.7319  154.54  125.03
-100.14  153.921  126.03
-99.7972  153.83  127.03
-99.8722  153.899  128.03
-100.032  153.936  129.03
-100.143  154.585  130.03
-100.392  154.615  131.03
-100.961  154.941  132.03
-101.054  155.055  133.03
-101.234  155.029  134.03
-101.895  155.186  135.03
-101.94  155.299  136.03
-102.002  155.411  137.03
-102.652  155.666  138.03
-102.782  155.761  139.03
-103.396  155.894  140.03
-103.496  155.904  141.03
-103.607  155.983  142.03
-104.238  156.194  143.03
-104.368  156.371  144.03
-104.497  156.53  145.03
-105.123  156.52  146.03
-105.23  156.446  147.03
-105.341  156.65  148.03
-105.452  156.855  149.03
-105.494  156.945  150.03
-105.536  157.033  151.03
-105.552  157.659  152.03
-105.724  157.579  153.03
-105.618  158.437  154.03
-105.647  158.622  155.03
-105.752  158.644  156.03
-106.016  157.947  157.03
-105.983  158.652  158.03
-106.097  158.664  159.03
-106.015  159.562  160.03
-106.067  159.81  161.03
-106.208  159.79  162.03
-106.374  159.692  163.03
-105.674  160.291  164.03
-105.636  160.367  165.03
-105.711  160.4  166.03
-105.836  160.416  167.03
-105.922  160.458  168.03
-105.989  160.513  169.03
-105.889  161.261  170.03
-105.366  161.175  171.03
-105.425  161.209  172.03
-105.487  161.229  173.03
-105.563  161.202  174.03
-105.65  161.139  175.03
-105.745  161.103  176.03
-105.673  161.783  177.03
-105.574  162.583  178.03
-105.016  162.668  179.03
-105.079  162.675  180.03
-105.166  162.402  181.03
-105.22  162.327  182.03
-105.228  162.527  183.03
-105.269  162.614  184.03
-105.363  162.516  185.03
-105.249  163.113  186.03
-105.888  163.193  187.03
-105.924  163.178  188.03
-105.984  163.301  189.03
-106.055  163.4  190.03
-106.153  163.443  191.03
-106.223  163.422  192.03
-106.252  163.303  193.03
-106.304  163.213  194.03
-106.847  164.007  195.03
-106.92  164.001  196.03
-106.917  164.197  197.03
-106.932  164.338  198.03
-107.692  164.252  199.03
-107.664  164.751  200.03
-107.524  165.523  201.03
-108.331  165.023  202.03
-108.411  164.976  203.03
-108.489  164.925  204.03
-109.177  164.883  205.03
-109.22  164.72  206.03
-109.246  164.773  207.03
-109.921  164.938  208.03
-110.002  165.04  209.03
-109.974  165.846  210.03
-110.623  165.86  211.03
-110.602  165.76  212.03
-110.678  165.668  213.03
-110.766  165.576  214.03
-111.538  165.715  215.03
-111.562  166.498  216.03
-111.536  167.016  217.03
-111.585  166.768  218.03
-111.639  166.764  219.03
-112.236  168.324  220.03
-112.306  168.271  221.03
-112.381  168.178  222.03
-112.454  168.098  223.03
-112.526  168.024  224.03
-112.624  167.994  225.03
-112.734  167.985  226.03
-112.751  168.69  227.03
-112.831  168.691  228.03
-112.877  168.595  229.03
-112.9  168.435  230.03
-112.984  168.402  231.03
-113.112  168.465  232.03
-113.125  169.13  233.03
-112.437  168.91  234.03
-112.531  168.76  235.03
-112.583  169.303  236.03
-112.711  169.252  237.03
-112.828  169.332  238.03
-112.958  169.302  239.03
-113.106  169.124  240.03
-113.157  169.72  241.03
-113.279  169.716  242.03
-112.534  170.298  243.03
-112.642  170.241  244.03
-112.744  170.174  245.03
-112.835  170.082  246.03
-112.932  169.983  247.03
-112.947  170.57  248.03
-113.04  170.511  249.03
-113.073  170.63  250.03
-113.108  170.705  251.03
-113.148  170.623  252.03
-113.194  170.54  253.03
-113.263  170.458  254.03
-113.228  171.095  255.03
-113.257  171.113  256.03
-113.294  171.127  257.03
-113.402  171.106  258.03
-113.505  171.076  259.03
-113.554  170.958  260.03
-113.503  171.55  261.03
-113.54  171.6  262.03
-113.578  171.649  263.03
-114.495  171.646  264.03
-114.601  171.535  265.03
-114.644  171.467  266.03
-114.685  171.401  267.03
-114.724  171.497  268.03
-114.762  171.606  269.03
-114.707  172.224  270.03
-114.738  172.113  271.03
-114.755  172.098  272.03
-114.771  172.083  273.03
-114.83  172.113  274.03
-114.898  172.152  275.03
-115.785  172.201  276.03
-115.843  172.133  277.03
-115.907  172.08  278.03
-115.899  172.74  279.03
-115.956  172.791  280.03
-116.009  172.88  281.03
-116.053  172.838  282.03
-116.094  172.735  283.03
-116.172  172.691  284.03
-116.27  172.68  285.03
-116.342  172.714  286.03
-116.399  172.777  287.03
-116.453  172.746  288.03
-116.506  172.647  289.03
-116.529  172.597  290.03
-116.454  173.293  291.03
-116.481  173.329  292.03
-116.534  173.41  293.03
-116.576  173.416  294.03
-116.607  173.341  295.03
-116.621  173.269  296.03
-116.612  173.203  297.03
-116.635  173.224  298.03
-116.707  173.373  299.03
-116.77  173.45  300.03
-116.816  173.406  301.03
-116.819  173.344  302.03
-116.738  173.247  303.03
-116.695  173.189  304.03
-116.668  173.927  305.03
-116.706  173.961  306.03
-116.717  174.003  307.03
-116.719  174.022  308.03
-116.689  173.966  309.03
-116.651  173.962  310.03
-116.578  174.182  311.03
-116.513  174.341  312.03
-116.495  174.176  313.03
-116.476  174.03  314.03
-116.46  174.03  315.03
-117.308  174.121  316.03
-117.283  174.2  317.03
-117.253  174.276  318.03
-117.203  174.339  319.03
-117.153  174.395  320.03
-117.113  174.188  321.03
-117.135  173.272  322.03
-117.082  173.246  323.03
-117.029  173.224  324.03
-116.943  173.376  325.03
-116.856  173.54  326.03
-116.752  173.414  327.03
-116.646  173.26  328.03
-116.541  173.283  329.03
-116.376  174.041  330.03
-116.232  174.092  331.03
-116.08  174.143  332.03
-116.094  173.293  333.03
-116.07  173.104  334.03
-115.928  173.754  335.03
-115.831  173.733  336.03
-116.672  173.155  337.03
-116.556  173.96  338.03
-116.42  173.833  339.03
-116.252  173.608  340.03
-116.142  172.841  341.03
-115.985  172.869  342.03
-115.821  173.616  343.03
-115.732  173.658  344.03
-115.582  173.62  345.03
-115.388  173.528  346.03
-116.1  172.751  347.03
-115.909  172.609  348.03
-115.755  172.641  349.03
-115.621  172.76  350.03
-115.493  172.715  351.03
-115.37  172.495  352.03
-116.024  172.372  353.03
-115.727  172.287  354.03
-115.494  172.214  355.03
-115.352  172.158  356.03
-115.171  172.1  357.03
-115.782  172.063  358.03
-115.54  171.282  359.03
-115.27  171.191  360.03
-115.023  171.127  361.03
-114.829  171.12  362.03
-115.455  171.082  363.03
-115.172  170.935  364.03
-114.91  170.755  365.03
-114.717  170.471  366.03
-114.504  170.249  367.03
-114.212  170.273  368.03
-113.93  170.259  369.03
-113.697  169.342  370.03
-114.299  169.831  371.03
-113.996  169.551  372.03
-113.693  169.289  373.03
-113.379  169.191  374.03
-113.07  169.092  375.03
-112.831  168.974  376.03
-112.59  168.855  377.03
-112.286  168.702  378.03
-111.982  168.55  379.03
-111.724  168.189  380.03
-111.466  167.825  381.03
-110.581  167.54  382.03
-109.663  167.259  383.03
-109.391  167.281  384.03
-109.194  167.338  385.03
-108.771  167.209  386.03
-108.311  167.049  387.03
-108.046  166.625  388.03
-106.98  166.148  389.03
-106.659  165.858  390.03
-106.316  165.609  391.03
-105.897  165.444  392.03
-105.458  165.303  393.03
-105.021  165.067  394.03
-104.584  164.799  395.03
-104.054  164.66  396.03
-103.512  164.538  397.03
-103.09  164.217  398.03
-103.568  163.797  399.03
-103.022  163.651  400.03
-102.376  163.655  401.03
-101.841  163.485  402.03
-101.377  163.203  403.03
-100.899  162.976  404.03
-100.41  162.789  405.03
-100.743  162.582  406.03
-100.215  162.398  407.03
-99.7756  162.121  408.03
-99.425  161.748  409.03
-99.8572  161.467  410.03
-99.3793  161.368  411.03
-99.8135  161.178  412.03
-99.4971  160.989  413.03
-99.1293  160.809  414.03
-99.5248  160.574  415.03
-99.1179  160.344  416.03
-99.6207  159.923  417.03
-99.2706  159.694  418.03
-98.8946  159.683  419.03
-99.3826  159.523  420.03
-99.1835  160.032  421.03
-98.9265  159.792  422.03
-99.7003  160.022  423.03
-99.372  159.02  424.03
-98.9434  158.96  425.03
-99.5409  159.386  426.03
-99.3207  159.049  427.03
-99.1024  158.741  428.03
-98.8957  158.604  429.03
-99.5386  158.324  430.03
-99.2741  158.188  431.03
-99.0073  158.057  432.03
-98.7153  157.987  433.03
-98.4305  157.901  434.03
-99.1577  157.284  435.03
-99.0308  156.826  436.03
-98.9485  157.419  437.03
-98.7305  157.314  438.03
-98.4869  157.418  439.03
-98.2427  157.528  440.03
-98.2197  157.191  441.03
-98.2116  156.825  442.03
-97.9401  156.719  443.03
-97.639  156.642  444.03
-97.5813  157.272  445.03
-97.4041  157.206  446.03
-97.2858  157.134  447.03
-97.1788  157.061  448.03
-97.1029  156.908  449.03
-97.1708  157.432  450.03
-95.9281  156.846  451.03
-95.7721  157.537  452.03
-95.5674  157.42  453.03
-95.3912  157.261  454.03
-95.3387  157.017  455.03
-94.3378  156.182  456.03
-94.1928  156.237  457.03
-93.9682  156.473  458.03
-92.96  156.631  459.03
-92.8961  156.53  460.03
-92.8947  157.124  461.03
-91.8708  157.125  462.03
-91.7743  156.952  463.03
-91.7021  156.733  464.03
-90.6667  156.895  465.03
-90.4701  157.221  466.03
-89.4716  157.377  467.03
-89.4825  157.17  468.03
-88.537  157.087  469.03
-88.4254  157.003  470.03
-87.3332  157.111  471.03
-87.033  157.361  472.03
-86.9013  157.38  473.03
-86.0239  157.219  474.03
-86.0244  157.138  475.03
-85.0674  157.312  476.03
-85.0144  157.426  477.03
-84.0527  157.465  478.03
-83.9336  157.54  479.03
-82.7351  157.73  480.03
-82.5313  157.814  481.03
-81.727  157.486  482.03
-81.7942  157.267  483.03
-81.7237  157.395  484.03
-80.7258  157.521  485.03
-80.5038  157.902  486.03
-79.4177  158.139  487.03
-79.5054  157.841  488.03
-79.577  157.572  489.03
-78.5712  157.551  490.03
-78.4682  157.611  491.03
-77.3133  159.168  492.03
-77.2096  159.395  493.03
-77.1637  159.453  494.03
-77.1177  159.512  495.03
-76.4762  158.579  496.03
-76.6761  158.453  497.03
-76.5467  158.583  498.03
-76.3104  159.435  499.03
-75.2392  159.452  500.03
-75.0905  159.588  501.03
-75.1007  160.108  502.03
-75.2397  159.888  503.03
-75.1722  160.044  504.03
-75.1039  160.203  505.03
-74.9614  160.367  506.03
-74.8004  160.532  507.03
-74.6099  161.203  508.03
-74.5393  161.111  509.03
-74.5982  160.957  510.03
-74.7039  160.781  511.03
-74.4448  161.71  512.03
-74.0692  162.814  513.03
-73.0092  162.759  514.03
-73.0149  162.689  515.03
-73.0524  162.528  516.03
-73.1083  162.314  517.03
-72.8967  163.04  518.03
-72.6861  163.231  519.03
-72.5701  163.369  520.03
-72.4896  163.487  521.03
-72.4775  163.483  522.03
-72.5284  163.367  523.03
-72.5705  163.23  524.03
-72.4921  163.774  525.03
-71.3752  163.652  526.03
-70.9282  164.649  527.03
-70.762  164.737  528.03
-70.8149  164.535  529.03
-70.8778  164.4  530.03
-70.9574  164.377  531.03
-70.9345  164.439  532.03
-70.5918  165.365  533.03
-70.4185  165.488  534.03
-70.3495  165.378  535.03
-69.3084  165.057  536.03
-69.3847  164.86  537.03
-69.4335  164.716  538.03
-69.3919  164.746  539.03
-69.1626  165.534  540.03
-68.8609  165.866  541.03
-69.664  166.267  542.03
-69.8415  165.877  543.03
-69.9782  165.54  544.03
-69.8538  165.547  545.03
-69.7274  165.57  546.03
-69.4564  166.455  547.03
-69.3162  166.628  548.03
-70.3235  166.804  549.03
-70.3119  166.779  550.03
-70.3931  166.643  551.03
-71.5173  166.662  552.03
-71.3803  166.71  553.03
-71.2412  166.759  554.03
-72.107  166.973  555.03
-71.9252  167.05  556.03
-73.1521  166.871  557.03
-73.3616  166.542  558.03
-73.1825  167.441  559.03
-74.0986  167.802  560.03
-73.96  168.574  561.03
-73.896  168.6  562.03
-74.8855  168.576  563.03
-74.8431  167.728  564.03
-74.8752  167.57  565.03
-74.8926  168.116  566.03
-75.9045  168.21  567.03
-75.7549  169.015  568.03
-75.7134  169.076  569.03
-74.6117  169.055  570.03
-74.6936  168.253  571.03
-74.7477  168.094  572.03
-73.6523  167.217  573.03
-73.4936  167.175  574.03
-72.3871  167.017  575.03
-71.2732  167.538  576.03
-70.2331  167.428  577.03
-69.1937  167.374  578.03
-68.1982  167.212  579.03
-67.2426  166.952  580.03
-66.1323  166.709  581.03
-64.8654  166.486  582.03
-64.5973  167.116  583.03
-63.5553  166.707  584.03
-62.1951  167.685  585.03
-61.244  167.303  586.03
-61.2992  167.304  587.03
-59.9617  167.808  588.03
-59.714  168.555  589.03
-59.5016  169.171  590.03
-59.2526  169.759  591.03
-59.1325  169.607  592.03
-58.8418  170.151  593.03
-58.8526  170.056  594.03
-58.8423  170.002  595.03
-58.5572  170.754  596.03
-59.8559  170.479  597.03
-59.8789  170.545  598.03
-61.0222  170.896  599.03
-60.7715  171.482  600.03
-61.8433  171.679  601.03
-61.6664  171.582  602.03
-62.6664  171.764  603.03
-62.6764  171.674  604.03
-63.8487  171.855  605.03
-63.7004  172.645  606.03
-64.8792  172.976  607.03
-66.1817  172.506  608.03
-66.1773  172.517  609.03
-67.1601  172.649  610.03
-66.9672  172.584  611.03
-68.1431  172.495  612.03
-69.3301  172.377  613.03
-69.2806  172.405  614.03
-70.4103  172.591  615.03
-70.4178  172.635  616.03
-71.619  172.793  617.03
-71.7137  172  618.03
-71.7494  171.895  619.03
-72.8414  171.876  620.03
-72.6828  172.472  621.03
-72.6707  172.324  622.03
-72.685  172.166  623.03
-72.6886  172.177  624.03
-72.6885  172.244  625.03
-72.8301  171.5  626.03
-71.7835  171.331  627.03
-71.715  171.273  628.03
-70.3604  171.813  629.03
-69.1127  171.531  630.03
-66.7136  170.998  631.03
-65.4801  170.657  632.03
-63.0709  170.092  633.03
-60.5977  170.192  634.03
-56.7895  170.574  635.03
-53.344  169.409  636.03
-48.2257  168.889  637.03
-43.1404  167.576  638.03
-38.9635  166.805  639.03
-19.0198  192.555  640.03
-16.536  196.133  641.03
-17.969  197.259  642.03
-19.7604  197.879  643.03
-33.3197  181.279  644.03
-44.6819  168.75  645.03
-47.2567  169.461  646.03
-51.368  169.841  647.03
-54.1328  169.938  648.03
-56.4196  170.577  649.03
-58.7183  171.115  650.03
-61.0073  171.527  651.03
-63.3534  171.887  652.03
-65.8306  172.258  653.03
-68.4182  171.855  654.03
-69.7168  172.008  655.03
-70.9933  172.143  656.03
-72.1612  172.279  657.03
-73.3299  172.354  658.03
-73.2687  172.128  659.03
-74.4299  171.968  660.03
-74.3278  171.855  661.03
-75.4784  171.069  662.03
-75.5358  171.044  663.03
-75.5909  171.023  664.03
-75.5857  171.133  665.03
-74.3648  171.211  666.03
-74.3814  171.076  667.03
-73.1459  171.599  668.03
-71.7744  172.092  669.03
-71.6754  171.951  670.03
-70.3955  171.743  671.03
-69.1266  171.519  672.03
-67.9881  171.378  673.03
-66.8518  171.216  674.03
-65.7073  171.043  675.03
-64.5663  170.848  676.03
-64.6149  170.709  677.03
-63.4364  170.314  678.03
-63.3967  170.188  679.03
-62.1196  169.826  680.03
-62.1953  169.684  681.03
-63.5326  169.78  682.03
-63.6409  169.752  683.03
-63.7443  169.77  684.03
-65.1053  170.02  685.03
-65.2643  170.046  686.03
-64.1925  169.74  687.03
-64.335  169.602  688.03
-64.3985  169.443  689.03
-64.4123  169.27  690.03
-64.5459  169.111  691.03
-64.765  168.963  692.03
-64.7247  169.138  693.03
-64.7131  168.291  694.03
-65.0048  168.34  695.03
-64.8042  166.915  696.03
