-92.2465 259.375 909.619
-92.2116 259.701 910.619
-92.0996 260.12 911.619
-90.9008 262.494 912.619
-90.9249 262.862 913.619
-94.3358 257.353 914.619
-94.408 257.309 915.619
-94.5345 257.201 916.619
-94.3921 257.938 917.619
-93.9356 259.22 918.619
-91.4425 263.535 919.619
-92.5566 262.686 920.619
-92.8518 262.597 921.619
-93.4732 262.023 922.62
-94.4382 260.928 923.62
-95.6248 259.318 924.62
-96.0296 258.83 925.62
-96.6829 257.799 926.62
-97.4297 256.463 927.62
-97.7056 256.184 928.62
-97.9253 256.047 929.62
-98.1451 255.909 930.62
-98.5322 255.713 931.62
-97.678 258.122 932.62
-97.7099 258.466 933.62
-97.7291 258.806 934.62
-100.326 254.685 935.62
-100.401 255.151 936.62
-100.114 256.019 937.62
-99.7734 256.852 938.62
-100.788 255.757 939.62
-100.521 256.65 940.621
-100.624 257.01 941.621
-101.028 256.848 942.621
-101.047 257.32 943.621
-101.315 257.309 944.621
-101.923 256.57 945.621
-102.272 256.273 946.621
-102.529 256.009 947.621
-103.804 254.304 948.621
-104.562 253.627 949.621
-104.308 254.45 950.621
-105.4 253.324 951.621
-105.503 253.767 952.621
-105.776 253.641 953.621
-106.275 252.96 954.621
-106.558 252.697 955.621
-106.868 252.335 956.621
-107.049 252.103 957.622
-106.862 252.54 958.622
-108.048 250.707 959.622
-107.891 251.371 960.622
-107.845 251.661 961.622
-107.656 252.176 962.622
-108.073 251.495 963.622
-108.338 251.23 964.622
-108.486 251.014 965.622
-108.19 251.421 966.622
-108.193 251.176 967.622
-109.526 248.634 968.622
-109.34 248.879 969.622
-109.103 249.356 970.622
-109.344 248.63 971.622
-109.549 247.706 972.622
-108.546 248.928 973.622
-108.884 248.076 974.622
-109.38 246.671 975.623
-108.417 247.432 976.623
-108.474 246.6 977.623
-108.452 246.136 978.623
-108.642 245.149 979.623
-108.492 244.914 980.623
-108.361 244.669 981.623
-108.382 244.342 982.623
-108.385 244.036 983.623
-108.212 243.94 984.623
-106.526 246.446 985.623
-106.679 245.531 986.623
-107.07 244.067 987.623
-107.433 242.464 988.623
-106.089 244.019 989.623
-105.894 243.823 990.623
-106.935 241.58 991.623
-106.661 241.828 992.624
-106.388 242.063 993.624
-106.448 241.232 994.624
-104.978 242.989 995.624
-105.408 241.431 996.624
-104.813 241.312 997.624
-104.839 240.468 998.624
-104.582 240.198 999.624
-105.421 238.292 1000.62
-104.85 238.953 1001.62
-105.491 237.695 1002.62
-105.169 238.02 1003.62
-105.255 237.204 1004.62
-104.11 238.449 1005.62
-104.205 237.546 1006.62
-104.059 237.141 1007.62
-103.844 236.784 1008.62
