-21.7998 215.81 584.6
-22.3106 216.5 585.62
-22.8214 217.191 586.64
-24.1952 219.38 587.644
-25.615 221.649 588.647
-26.4973 222.992 589.621
-27.3358 224.26 590.594
-27.6668 224.65 591.552
-27.9318 224.927 592.51
-28.4621 225.661 593.475
-29.0365 226.473 594.44
-29.5531 227.189 595.376
-30.0561 227.883 596.305
-28.9967 225.859 597.291
-27.8457 223.676 598.281
-27.8822 223.557 599.232
-28.3209 224.139 600.169
-28.4965 224.274 601.056
-28.5618 224.222 601.921
-27.8506 222.814 602.84
-26.7586 220.741 603.785
-27.1731 221.267 604.793
-28.442 223.266 605.838
-29.0548 224.149 606.777
-29.2364 224.297 607.648
-29.4233 224.445 608.572
-29.6134 224.59 609.538
-29.9807 225.043 610.5
-30.5046 225.768 611.459
-31.032 226.507 612.375
-31.5623 227.259 613.248
-31.896 227.666 614.143
-31.9959 227.664 615.062
-32.3184 228.035 616.045
-32.9385 228.906 617.112
-33.1855 229.151 618.073
-32.854 228.424 618.87
-32.8308 228.219 619.734
-33.3635 228.955 620.716
-33.9055 229.71 621.679
-34.4665 230.506 622.601
-34.8028 230.911 623.534
-34.5854 230.351 624.494
-35.0779 231.022 625.453
-36.5979 233.473 626.41
-37.3817 234.649 627.365
-35.404 231.04 628.315
-34.2782 228.902 629.293
-37.123 233.622 630.398
-39.6167 237.736 631.483
-40.1139 238.411 632.459
-40.5868 239.044 633.438
-40.8449 239.298 634.451
-41.065 239.487 635.457
-40.8093 238.87 636.37
-40.5784 238.294 637.288
-40.9119 238.677 638.311
-41.2336 239.039 639.333
-39.2996 235.535 640.135
-37.366 232.031 640.937
-38.2722 233.415 641.912
-39.2896 234.99 642.896
-37.9822 232.419 644.497
-36.5118 229.557 646.141
-36.092 228.629 647.191
-35.7957 227.928 648.17
-36.1094 228.291 649.118
-36.5201 228.823 650.061
-36.8946 229.293 650.999
-37.2612 229.749 651.935
-37.5161 230.003 652.917
-37.7427 230.206 653.911
-37.8512 230.211 654.871
-37.9221 230.153 655.819
-38.1817 230.417 656.791
-38.5138 230.806 657.771
-38.7873 231.095 658.739
-39.034 231.339 659.702
-39.3282 231.663 660.676
-39.6478 232.029 661.656
-39.5529 231.679 662.631
-39.1922 230.868 663.603
-39.5452 231.299 664.553
-40.4191 232.635 665.486
-40.8603 233.215 666.453
-40.9425 233.167 667.447
-41.0047 233.087 668.432
-41.0488 232.978 669.407
-41.2024 233.058 670.379
-41.4253 233.259 671.348
-41.4977 233.199 672.321
-41.4758 232.975 673.296
-41.572 232.96 674.246
-41.8423 233.255 675.157
-42.2501 233.78 676.107
-42.8982 234.709 677.125
-43.4629 235.491 678.153
-43.8545 235.97 679.2
-44.1486 236.281 680.243
-44.2201 236.207 681.279
-44.3324 236.205 682.309
-44.5656 236.416 683.319
-44.7456 236.534 684.334
-44.7434 236.334 685.365
-44.7611 236.168 686.391
-44.8647 236.156 687.397
-44.9685 236.143 688.405
-45.0745 236.132 689.428
-45.1909 236.139 690.447
-45.3874 236.289 691.444
-45.5824 236.436 692.443
-45.7564 236.543 693.465
-45.9291 236.647 694.486
-46.0718 236.703 695.489
-46.2153 236.76 696.49
-46.4098 236.906 697.492
-46.6046 237.053 698.494
-46.8232 237.237 699.512
-47.043 237.423 700.532
-47.3711 237.806 701.505
-47.7017 238.193 702.479
-47.9624 238.452 703.491
-48.2234 238.711 704.503
-48.4355 238.888 705.499
-48.6409 239.054 706.492
-48.8188 239.168 707.512
-48.991 239.271 708.536
-49.2743 239.572 709.529
-49.5839 239.921 710.515
-49.9006 240.278 711.519
-50.2197 240.638 712.528
-50.4816 240.9 713.532
-50.723 241.128 714.532
-50.9103 241.263 715.522
-51.0746 241.36 716.508
-51.2788 241.523 717.505
-51.5033 241.721 718.508
-51.7687 241.991 719.501
-52.0593 242.306 720.488
-52.3696 242.653 721.487
-52.6931 243.022 722.495
-53.0271 243.413 723.476
-53.3705 243.825 724.435
-53.6212 244.072 725.418
-53.7856 244.165 726.421
-54.0085 244.364 727.407
-54.2941 244.674 728.372
-54.585 244.993 729.345
-54.8818 245.319 730.328
-55.1721 245.636 731.305
-55.4524 245.936 732.276
-55.6689 246.126 733.246
-55.7784 246.131 734.217
-55.9368 246.219 735.192
-56.188 246.466 736.178
-56.4237 246.687 737.161
-56.6231 246.846 738.138
-56.8363 247.027 739.124
-57.0877 247.27 740.133
-57.3335 247.505 741.135
-57.5622 247.714 742.118
-57.7645 247.876 743.105
-57.8604 247.85 744.109
-57.9575 247.827 745.112
-58.0591 247.812 746.11
-58.1638 247.803 747.11
-58.294 247.835 748.122
-58.4477 247.909 749.129
-58.6678 248.1 750.129
-58.8828 248.282 751.128
-59.0206 248.331 752.121
-59.1573 248.378 753.115
-59.2668 248.374 754.129
-59.3762 248.37 755.144
-59.3784 248.182 756.148
-59.3789 247.992 757.152
-59.4776 247.969 758.169
-59.5818 247.955 759.187
-59.7729 248.095 760.189
-59.9726 248.25 761.189
-59.9557 248.025 762.213
-59.9095 247.749 763.241
-60.0284 247.763 764.246
-60.1768 247.829 765.247
-60.2104 247.694 766.257
-60.2174 247.513 767.268
-60.2115 247.307 768.295
-60.2023 247.094 769.326
-60.3708 247.194 770.335
-60.6007 247.401 771.337
-60.8215 247.591 772.344
-61.0407 247.779 773.353
-61.1246 247.733 774.355
-61.1419 247.572 775.355
-61.1276 247.351 776.379
-61.0955 247.098 777.417
-61.1452 246.991 778.429
-61.2476 246.978 779.425
-61.4415 247.122 780.431
-61.7064 247.388 781.444
-61.8348 247.415 782.463
-61.8423 247.233 783.486
-61.8735 247.094 784.499
-61.9291 246.999 785.501
-61.9903 246.913 786.508
-62.0586 246.838 787.519
-62.1966 246.886 788.522
-62.4342 247.108 789.513
-62.6048 247.212 790.521
-62.6719 247.13 791.558
-62.785 247.132 792.575
-62.9843 247.29 793.555
-63.0938 247.289 794.553
-63.0041 246.935 795.591
-62.9893 246.714 796.617
-63.1681 246.835 797.609
-63.3218 246.91 798.607
-63.4012 246.854 799.621
-63.5178 246.863 800.633
-63.7744 247.118 801.629
-64.0117 247.339 802.625
-64.1648 247.413 803.624
-64.2992 247.455 804.627
-64.3157 247.287 805.657
-64.3384 247.13 806.683
-64.4136 247.07 807.68
-64.4996 247.029 808.678
-64.7506 247.271 809.688
-64.9967 247.505 810.698
-65.1006 247.493 811.702
-65.2045 247.481 812.706
-65.2971 247.446 813.73
-65.3898 247.412 814.754
-65.4861 247.388 815.753
-65.5829 247.365 816.751
-65.6514 247.29 817.764
-65.7179 247.212 818.776
-65.9095 247.351 819.79
-66.1158 247.515 820.804
-66.2899 247.624 821.809
-66.459 247.726 822.811
-66.558 247.702 823.835
-66.6417 247.651 824.863
-66.6867 247.537 825.871
-66.7207 247.404 826.874
-66.8164 247.374 827.899
-66.9179 247.354 828.927
-67.0833 247.449 829.93
-67.2752 247.592 830.922
-67.4261 247.66 831.937
-67.5577 247.692 832.962
-67.6432 247.646 833.979
-67.7036 247.558 834.991
-67.7721 247.483 836.005
-67.8454 247.416 837.021
-67.8947 247.306 838.044
-67.9257 247.163 839.073
-68.0016 247.101 840.088
-68.1152 247.106 841.093
-68.2404 247.129 842.11
-68.3773 247.17 843.14
-68.471 247.138 844.155
-68.5152 247.024 845.154
-68.538 246.87 846.166
-68.5307 246.661 847.195
-68.5437 246.489 848.215
-68.5852 246.368 849.224
-68.664 246.312 850.234
-68.8091 246.37 851.245
-68.9264 246.38 852.26
-68.9865 246.29 853.276
-69.0507 246.208 854.289
-69.1253 246.146 855.291
-69.1907 246.068 856.295
-69.2303 245.943 857.306
-69.2728 245.824 858.317
-69.3267 245.724 859.329
-69.3842 245.63 860.344
-69.4582 245.561 861.375
-69.5381 245.504 862.399
-69.6502 245.511 863.384
-69.7564 245.506 864.372
-69.817 245.42 865.374
-69.8685 245.317 866.378
-69.8161 245.032 867.398
-69.773 244.763 868.417
-69.9022 244.798 869.402
-70.0316 244.835 870.387
-70.1272 244.807 871.401
-70.2228 244.779 872.416
-70.2572 244.647 873.416
-70.2846 244.503 874.418
-70.2577 244.262 875.439
-70.2307 244.02 876.46
-70.3426 244.028 877.433
-70.4688 244.062 878.402
-70.5121 243.943 879.416
-70.5421 243.801 880.437
-70.5685 243.653 881.451
-70.594 243.504 882.463
-70.6344 243.382 883.465
-70.6783 243.268 884.464
-70.6805 243.081 885.464
-70.6782 242.886 886.463
-70.6726 242.685 887.466
-70.6665 242.483 888.468
-70.7032 242.353 889.483
-70.7587 242.254 890.503
-70.8583 242.237 891.5
-70.9814 242.262 892.485
-71.0372 242.167 893.489
-71.0531 242 894.505
-71.0569 241.814 895.514
-71.0513 241.613 896.517
-71.0587 241.433 897.526
-71.0757 241.269 898.54
-71.1393 241.187 899.547
-71.2478 241.184 900.548
-71.3349 241.143 901.557
-71.4 241.061 902.573
-71.4579 240.967 903.592
-71.508 240.859 904.614
-71.5655 240.767 905.618
-71.6282 240.686 906.609
-71.6842 240.592 907.611
-71.7277 240.472 908.633
-71.7835 240.375 909.65
-71.8635 240.321 910.657
-71.9554 240.287 911.669
-72.0745 240.298 912.692
-72.1835 240.293 913.708
-72.265 240.244 914.707
-72.3331 240.169 915.714
-72.3572 240.015 916.745
-72.3967 239.887 917.772
-72.497 239.868 918.782
-72.6008 239.854 919.794
-72.7202 239.867 920.814
-72.8403 239.88 921.835
-72.9634 239.898 922.86
-73.087 239.916 923.883
-73.2151 239.947 924.884
-73.3376 239.968 925.887
-73.3704 239.829 926.914
-73.4034 239.69 927.94
-73.4829 239.634 928.956
-73.562 239.577 929.971
-73.6592 239.549 931.003
-73.7559 239.519 932.035
-73.8464 239.481 933.059
-73.9367 239.442 934.083
-74.0605 239.462 935.102
-74.1876 239.487 936.121
-74.2328 239.372 937.137
-74.2668 239.237 938.152
-74.3355 239.162 939.17
-74.4103 239.097 940.19
-74.5193 239.089 941.219
-74.6354 239.093 942.251
-74.7747 239.14 943.269
-74.9208 239.2 944.282
-74.9915 239.126 945.311
-75.0353 239.005 946.344
-75.07 238.869 947.369
-75.1008 238.728 948.39
-75.134 238.59 949.412
-75.1685 238.454 950.436
-75.2622 238.421 951.461
-75.3892 238.445 952.486
-75.4871 238.421 953.505
-75.5761 238.381 954.523
-75.6179 238.257 955.549
-75.624 238.07 956.583
-75.6529 237.926 957.601
-75.703 237.822 958.602
-75.7123 237.643 959.622
-75.68 237.389 960.661
-75.7016 237.231 961.681
-75.7877 237.19 962.68
-75.8526 237.11 963.69
-75.8888 236.977 964.715
-75.9161 236.83 965.728
-75.9283 236.662 966.723
-75.9059 236.431 967.726
-75.8215 236.091 968.743
-75.7779 235.823 969.753
-75.8247 235.714 970.748
-75.8357 235.542 971.747
-75.7569 235.214 972.752
-75.6918 234.908 973.759
-75.6677 234.674 974.771
-75.633 234.421 975.778
-75.5563 234.1 976.763
-75.4719 233.765 977.752
-75.349 233.359 978.763
-75.2359 232.971 979.771
-75.1785 232.682 980.761
-75.1217 232.395 981.753
-75.0687 232.11 982.761
-75.0201 231.834 983.767
-75.0164 231.64 984.748
-75.0093 231.44 985.73
-74.8993 231.059 986.729
-74.7888 230.677 987.729
-74.6289 230.207 988.735
-74.4686 229.738 989.741
-74.4164 229.459 990.725
-74.3677 229.187 991.709
-74.3071 228.891 992.712
-74.2455 228.592 993.715
-74.1606 228.256 994.704
-74.0731 227.916 995.692
-73.9212 227.461 996.699
-73.7589 226.986 997.709
-73.6484 226.607 998.696
-73.5484 226.246 999.679
-73.4233 225.839 1000.67
-73.2925 225.421 1001.68
-73.2313 225.125 1002.67
-73.1914 224.866 1003.67
-73.1239 224.559 1004.66
-73.0459 224.235 1005.65
-72.9329 223.849 1006.64
-72.8036 223.434 1007.64
-72.6771 223.026 1008.63
-72.5525 222.622 1009.62
-72.4135 222.191 1010.62
-72.2654 221.742 1011.62
-72.1749 221.395 1012.62
-72.1249 221.119 1013.61
-72.0355 220.774 1014.61
-71.9135 220.37 1015.61
-71.8017 219.987 1016.61
-71.7004 219.621 1017.61
-71.5772 219.217 1018.6
-71.431 218.771 1019.61
-71.3267 218.399 1020.61
-71.2752 218.119 1021.61
-71.2119 217.818 1022.61
-71.1317 217.488 1023.61
-71.0588 217.171 1024.61
-70.998 216.875 1025.61
-70.9157 216.541 1026.61
-70.7899 216.132 1027.61
-70.6591 215.714 1028.62
-70.5157 215.273 1029.63
-70.4262 214.926 1030.63
-70.4065 214.701 1031.63
-70.3701 214.447 1032.63
-70.2808 214.1 1033.63
-70.1872 213.746 1034.64
-70.0787 213.364 1035.66
-69.9699 212.983 1036.67
-69.8583 212.601 1037.65
-69.7648 212.25 1038.64
-69.7962 212.115 1039.64
-69.8083 211.946 1040.63
-69.6425 211.463 1041.65
-69.4795 210.986 1042.68
-69.3675 210.597 1043.69
-69.2586 210.214 1044.71
-69.2337 209.981 1045.71
-69.2083 209.747 1046.7
-69.1961 209.537 1047.69
-69.1841 209.328 1048.68
-69.0348 208.877 1049.69
-68.8796 208.415 1050.69
-68.8451 208.164 1051.7
-68.8213 207.931 1052.7
-68.7853 207.678 1053.7
-68.7476 207.421 1054.7
-68.6896 207.13 1055.7
-68.628 206.832 1056.7
-68.4767 206.376 1057.72
-68.3052 205.884 1058.74
-68.246 205.591 1059.74
-68.2188 205.354 1060.73
-68.1691 205.076 1061.73
-68.1111 204.783 1062.74
-68.0632 204.509 1063.75
-68.0191 204.241 1064.75
-68.0074 204.03 1065.75
-68.0111 203.846 1066.74
-67.9686 203.581 1067.74
-67.9002 203.272 1068.74
-67.8328 202.965 1069.74
-67.7659 202.659 1070.74
-67.6944 202.343 1071.74
-67.6193 202.019 1072.76
-67.5968 201.789 1073.76
-67.6198 201.638 1074.76
-67.5967 201.407 1075.76
-67.525 201.089 1076.77
-67.4409 200.752 1077.78
-67.3477 200.4 1078.77
-67.2519 200.043 1079.77
-67.1524 199.678 1080.78
-67.1052 199.406 1081.78
-67.1377 199.274 1082.76
-67.1567 199.118 1083.75
-67.1502 198.916 1084.75
-67.1299 198.691 1085.75
-67.0809 198.415 1086.74
-67.0131 198.107 1087.74
-66.8978 197.716 1088.74
-66.8195 197.39 1089.74
-66.8508 197.255 1090.73
-66.8523 197.069 1091.72
-66.7487 196.7 1092.71
-66.6622 196.362 1093.7
-66.652 196.153 1094.7
-66.6501 195.96 1095.7
-66.6961 195.852 1096.68
-66.7376 195.737 1097.66
-66.7443 195.558 1098.66
-66.7405 195.361 1099.65
-66.6148 194.954 1100.65
-66.4905 194.548 1101.64
-66.4077 194.215 1102.64
-66.3245 193.881 1103.63
