-14.4806  -101.339  30.9991
-0.803987  -103.097  30.9991
12.8127  -104.979  30.9991
26.3915  -107.172  30.9991
39.9826  -109.737  30.9991
53.1941  -113.266  30.9991
65.5546  -118.909  30.9991
76.7122  -127.094  30.9991
86.4343  -136.656  30.9991
92.3234  -148.791  30.9991
85.2273  -163.483  30.9991
77.3468  -177.928  30.9991
66.325  -189.562  30.9991
51.6971  -196.734  30.9991
36.0288  -201.513  30.9991
19.865  -201.795  30.9991
3.55832  -199.883  30.9991
-12.4295  -196.748  30.9991
-27.8745  -191.311  30.9991
-44.157  -185.164  30.9991
-60.2735  -178.588  30.9991
-76.1589  -171.479  30.9991
-91.9825  -164.247  30.9991
-107.94  -157.24  30.9991
-123.493  -149.489  30.9991
-137.733  -139.584  30.9991
-150.253  -127.479  30.9991
-157.556  -112.195  30.9991
-153.794  -98.008  30.9991
-144.114  -87.5116  30.9991
-130.685  -85.2066  30.9991
-115.899  -87.8803  30.9991
-101.249  -89.8877  30.9991
-86.6944  -91.4867  30.9991
-71.9977  -93.721  30.9991
-57.3851  -95.5774  30.9991
-42.7515  -97.5289  30.9991
-28.1154  -99.4911  30.9991
s
-27.8352  -96.3563  36.3506
-12.8505  -99.5446  36.3506
2.10897  -102.797  36.3506
17.1826  -105.754  36.3506
32.0455  -109.291  36.3506
46.528  -114.143  36.3506
60.3993  -120.771  36.3506
72.5306  -129.876  36.3506
84.3442  -139.861  36.3506
90.6144  -152.63  36.3506
79.4544  -165.659  36.3506
67.7283  -178.249  36.3506
55.1417  -189.851  36.3506
40.2871  -198.31  36.3506
23.6364  -201.444  36.3506
6.6273  -199.471  36.3506
-10.1852  -195.849  36.3506
-26.6616  -191.09  36.3506
-42.7054  -184.913  36.3506
-57.5397  -178.714  36.3506
-72.3248  -172.379  36.3506
-87.1104  -166.041  36.3506
-101.889  -159.763  36.3506
-116.624  -153.243  36.3506
-130.17  -144.752  36.3506
-142.643  -134.512  36.3506
-153.95  -123.265  36.3506
-157.923  -108.041  36.3506
-153.969  -96.0387  36.3506
-144.976  -86.1791  36.3506
-133.452  -80.8733  36.3506
-120.524  -80.8331  36.3506
-107.501  -82.8271  36.3506
-94.5178  -84.7676  36.3506
-81.5421  -86.3285  36.3506
-68.5435  -88.183  36.3506
-55.6483  -90.4584  36.3506
-42.8292  -93.1925  36.3506
s
-39.1551  -94.7665  52.4053
-29.3088  -97.745  52.4053
-19.4607  -100.72  52.4053
-9.6407  -103.742  52.4053
0.234106  -106.673  52.4053
10.0718  -109.666  52.4053
19.8497  -112.754  52.4053
29.8463  -115.49  52.4053
39.0503  -119.648  52.4053
43.6779  -128.56  52.4053
39.6583  -140.509  52.4053
31.4355  -150.719  52.4053
21.8403  -159.235  52.4053
12.7644  -168.994  52.4053
2.37448  -175.596  52.4053
-10.1713  -176.233  52.4053
-23.1326  -173.884  52.4053
-35.8313  -171.293  52.4053
-48.4931  -168.339  52.4053
-62.271  -164.55  52.4053
-76.0358  -160.669  52.4053
-89.6928  -156.5  52.4053
-103.17  -151.697  52.4053
-116.019  -145.502  52.4053
-128.189  -137.994  52.4053
-140.341  -130.475  52.4053
-151.476  -121.561  52.4053
-156.743  -108.688  52.4053
-152.923  -97.3659  52.4053
-144.142  -89.1686  52.4053
-132.943  -84.7824  52.4053
-120.956  -83.6309  52.4053
-108.818  -83.7363  52.4053
-96.7004  -84.1985  52.4053
-84.5986  -84.8654  52.4053
-72.5325  -86.1124  52.4053
-60.6356  -88.3863  52.4053
-48.9956  -91.7788  52.4053
s
-65.6861  -85.3024  73.8115
-58.7756  -88.0601  73.8115
-52.0206  -91.1937  73.8115
-45.745  -95.1708  73.8115
-39.6789  -99.5007  73.8115
-33.6045  -103.806  73.8115
-27.5259  -108.106  73.8115
-21.4526  -112.418  73.8115
-15.3873  -116.738  73.8115
-9.32318  -121.061  73.8115
-11.3568  -129.863  73.8115
-16.2392  -137.156  73.8115
-21.1197  -144.884  73.8115
-28.6349  -148.967  73.8115
-37.4254  -150.806  73.8115
-46.2968  -152.228  73.8115
-55.1229  -153.532  73.8115
-64.035  -152.936  73.8115
-72.8938  -151.541  73.8115
-83.0211  -149.924  73.8115
-93.1906  -148.36  73.8115
-103.185  -146.073  73.8115
-112.529  -141.969  73.8115
-121.549  -137.003  73.8115
-129.957  -131.195  73.8115
-137.342  -124.132  73.8115
-143.847  -116.146  73.8115
-149.204  -107.487  73.8115
-147.428  -99.0689  73.8115
-141.621  -92.4336  73.8115
-134.107  -87.8986  73.8115
-125.667  -85.495  73.8115
-116.891  -84.4658  73.8115
-108.058  -83.8761  73.8115
-99.2507  -83.1697  73.8115
-90.4316  -82.4151  73.8115
-81.61  -82.1198  73.8115
-72.876  -83.3941  73.8115
s
-80.8627  -78.3571  95.2176
-75.0626  -80.0552  95.2176
-69.6833  -82.7609  95.2176
-64.7099  -86.2921  95.2176
-60.1139  -90.1167  95.2176
-55.1981  -93.7871  95.2176
-50.5973  -97.6936  95.2176
-48.3686  -102.951  95.2176
-47.612  -109  95.2176
-47.4552  -115.037  95.2176
-48.8105  -120.961  95.2176
-51.7483  -126.291  95.2176
-55.8126  -130.819  95.2176
-60.2951  -134.951  95.2176
-65.1399  -138.64  95.2176
-70.7029  -141.027  95.2176
-76.5128  -142.949  95.2176
-82.4399  -144.224  95.2176
-88.5006  -144.975  95.2176
-97.0415  -145.334  95.2176
-105.321  -143.353  95.2176
-113.194  -139.964  95.2176
-120.491  -135.461  95.2176
-126.453  -129.478  95.2176
-131.432  -122.43  95.2176
-136.219  -115.276  95.2176
-140.91  -108.087  95.2176
-143.385  -99.948  95.2176
-140.745  -94.3501  95.2176
-136.049  -90.0181  95.2176
-130.475  -87.3928  95.2176
-124.227  -86.1101  95.2176
-117.964  -84.866  95.2176
-111.802  -83.4207  95.2176
-105.55  -82.1493  95.2176
-99.3416  -80.8016  95.2176
-93.1248  -79.4491  95.2176
-86.8549  -78.4182  95.2176
s
-88.7971  -80.6718  116.624
-83.9682  -81.6926  116.624
-79.2599  -83.2275  116.624
-74.6386  -85.0419  116.624
-70.2186  -87.2535  116.624
-66.141  -90.0253  116.624
-62.4238  -93.3058  116.624
-58.8275  -96.7074  116.624
-55.4705  -100.341  116.624
-52.1919  -104.059  116.624
-54.2686  -110.635  116.624
-56.4265  -117.181  116.624
-59.2529  -123.441  116.624
-63.0835  -129.18  116.624
-67.8669  -134.112  116.624
-73.669  -137.71  116.624
-80.0788  -140.365  116.624
-86.7292  -141.723  116.624
-93.6086  -141.049  116.624
-101.253  -140.108  116.624
-108.796  -138.678  116.624
-115.913  -135.851  116.624
-122.112  -131.328  116.624
-127.22  -125.598  116.624
-131.921  -119.501  116.624
-136.596  -113.382  116.624
-140.692  -106.882  116.624
-142.254  -99.4241  116.624
-140.65  -94.226  116.624
-136.978  -89.8526  116.624
-132.626  -86.2431  116.624
-127.537  -84.3012  116.624
-121.939  -83.6265  116.624
-116.234  -83.2211  116.624
-110.646  -82.5137  116.624
-104.997  -81.9621  116.624
-99.3622  -81.3759  116.624
-93.7282  -80.7872  116.624
s
