-31.0353 -144.987 1228.27
-32.2532 -152.977 1207.19
-33.0284 -158.968 1190.04
-33.1231 -161.975 1177.31
-51.5262 -173.47 1169.25
-68.9959 -184.329 1123.14
-75.8998 -188.08 1114.02
-87.176 -206.494 1069.89
-92.8593 -208.859 1060.55
-97.7332 -210.453 1051.07
-105.506 -223.368 1006
-110.653 -224.73 996.482
-97.8294 -238.083 961.076
-82.6909 -243.203 934.402
-68.0748 -246.257 907.902
-55.021 -245.319 881.308
-44.7367 -241.312 854.54
-34.7912 -236.586 828.234
-26.2423 -231.045 802.068
-17.3512 -225.565 776.465
-17.6589 -137.616 1221.8
-19.8112 -145.445 1203.06
-22.486 -150.561 1187.04
-23.7134 -151.955 1175.64
-40.6912 -168.243 1168.66
-58.7101 -182.63 1123.25
-65.4165 -187.087 1114.28
-76.9277 -206.444 1070.33
-82.0066 -210.327 1061.34
-87.2676 -213.518 1052.19
-95.4693 -226.607 1007.12
-100.138 -228.655 997.776
-86.7902 -240.775 962.34
-72.0368 -244.201 935.553
-57.8175 -244.957 908.896
-46.7604 -241.619 881.978
-38.0788 -236.658 855.116
-29.9018 -232.434 828.781
-21.9175 -226.345 802.662
-14.4217 -220.035 776.886
-10.1028 -128.233 1210.37
-13.2026 -134.548 1194.82
-15.3301 -139.222 1182.18
-17.3255 -140.212 1173.46
-30.4331 -161.825 1167.79
-49.1997 -177.489 1122.59
-55.3997 -182.729 1113.81
-67.1385 -202.752 1069.97
-71.6159 -207.775 1061.25
-76.2304 -212.184 1052.39
-85.3468 -227.878 1007.83
-89.8734 -229.801 998.456
-76.2645 -240.583 963.004
-61.643 -241.926 936.105
-49.1729 -240.447 909.203
-39.4084 -236.377 882.312
-32.49 -231.24 855.427
-25.2388 -226.745 829.141
-18.1213 -220.579 803.064
-12.1124 -213.102 777.084
-9.08728 -119.316 1197.45
-10.7328 -123.582 1185.7
-13.0398 -126.885 1176.29
-14.6729 -127.85 1170.97
-24.0424 -151.765 1165.96
-41.2106 -169.934 1121.35
-47.5186 -175.903 1112.72
-59.1416 -196.371 1068.95
-63.0498 -202.259 1060.44
-66.7777 -207.498 1051.8
-74.7157 -226.938 1008.07
-79.3872 -230.982 999.152
-65.5249 -237.74 963.161
-52.1293 -236.948 936.101
-41.1952 -234.12 909.151
-33.6199 -229.189 882.162
-28.6942 -224.214 855.256
-22.1209 -219.465 829.056
-16.8668 -212.784 802.767
-12.9197 -206.065 776.522
-10.2752 -111.595 1185.56
-11.9366 -113.268 1176.43
-13.6438 -114.564 1170.07
-14.4918 -114.922 1168.24
-20.5946 -140.407 1163.71
-36.1571 -159.993 1119.47
-41.5926 -166.781 1111.04
-52.7496 -188.664 1067.58
-55.7286 -195.098 1059.22
-59.0783 -201.497 1050.84
-65.3886 -221.522 1007.29
-68.4202 -227.806 998.924
-55.1389 -232.209 962.767
-43.6198 -229.646 935.597
-35.0511 -225.666 908.554
-29.3452 -220.485 881.593
-26.7229 -215.607 854.6
-22.589 -211.612 828.231
-19.5773 -206.092 801.691
-17.1002 -199.748 775.18
-10.3 -103.092 1172.91
-10.78 -103.51 1168.12
-11.6875 -104.146 1165.1
-10.5992 -103.052 1165.91
-19.5505 -127.504 1161.02
-34.5318 -148.251 1117.04
-38.423 -156.673 1109.02
-48.8121 -179.834 1065.86
-50.9842 -186.821 1057.65
-53.3983 -194.272 1049.53
-58.1249 -214.857 1006.15
-60.4295 -221.896 997.977
-47.6186 -224.852 961.824
-38.746 -220.991 934.522
-32.6451 -216.122 907.352
-29.5514 -211.346 880.332
-28.8408 -207.973 853.376
-27.0897 -205.582 826.804
-25.6453 -201.432 800.036
-22.3458 -193.854 773.603
-17.4282 -96.4271 1160.6
-17.4282 -96.4271 1160.6
-17.4282 -96.4271 1160.6
-17.4282 -96.4271 1160.6
-19.3331 -112.922 1157.93
-36.8509 -137.047 1114.54
-37.7974 -144.578 1106.47
-46.6427 -169.472 1063.73
-47.9613 -177.239 1055.72
-49.9751 -185.002 1047.68
-53.4384 -206.183 1004.47
-53.5351 -213.643 996.475
-43.3328 -214.585 960.093
-37.9999 -210.292 932.709
-35.0733 -206.856 905.63
-34.4936 -203.557 878.583
-33.7138 -201.606 851.837
-33.2029 -201.779 825.277
-31.9589 -199.301 798.513
-29.7557 -191.864 771.706
-30.9379 -99.4748 1160.6
-30.9379 -99.4748 1160.6
-30.9379 -99.4748 1160.6
-30.9379 -99.4748 1160.6
-28.0847 -100.691 1154.91
-43.4451 -126.574 1112.01
-42.7653 -134.004 1103.98
-48.4261 -158.448 1061.29
-47.5059 -166.431 1053.42
-48.4645 -175.098 1045.61
-53.5049 -196.009 1002.27
-52.0944 -203.172 994.264
-44.5459 -204.063 957.946
-42.4462 -200.974 930.663
-39.8219 -199.047 903.864
-40.2539 -197.484 876.949
-40.8657 -197.818 850.214
-39.3131 -199.629 823.906
-38.0331 -196.91 797.022
-37.0228 -193.204 770.016
-44.4477 -102.522 1160.6
-44.4477 -102.522 1160.6
-44.4477 -102.522 1160.6
-44.4477 -102.522 1160.6
-45.4231 -103.745 1154.73
-54.529 -122.167 1110.56
-52.093 -127.464 1102.15
-55.1854 -150.01 1059.19
-53.0197 -157.249 1051.2
-51.8909 -164.574 1043.19
-58.1365 -186.861 1000.09
-55.1695 -193.565 992.049
-51.0958 -195.048 955.739
-48.8249 -193.813 928.82
-46.7519 -193.419 902.182
-46.5728 -192.886 875.435
-47.6723 -195.987 848.871
-45.5622 -198.487 822.603
-44.2509 -196.445 795.64
-43.302 -195.935 768.639
-57.9574 -105.57 1160.6
-57.9574 -105.57 1160.6
-57.9574 -105.57 1160.6
-57.9574 -105.57 1160.6
-56.6926 -105.453 1154.55
-64.9366 -121.304 1109.9
-63.1269 -125.879 1101.31
-65.2508 -145.521 1057.78
-61.7177 -150.521 1049.37
-58.4988 -156.469 1041.15
-63.4455 -178.95 998.159
-61.8264 -185.83 990.091
-57.9928 -188.205 953.936
-55.9673 -188.023 927.148
-54.3489 -189.038 900.616
-54.3365 -190.241 873.98
-54.5321 -194.995 847.616
-51.9178 -198.693 821.405
-50.4053 -198.675 794.47
-48.4835 -199.279 767.559
-71.4671 -108.618 1160.6
-71.4671 -108.618 1160.6
-71.4671 -108.618 1160.6
-71.4671 -108.618 1160.6
-65.3472 -106.931 1154.45
-74.226 -121.829 1109.58
-72.7379 -126.067 1100.9
-75.8839 -145.494 1057.31
-72.7735 -148.851 1048.52
-69.2477 -153.225 1039.98
-71.5495 -172.674 996.46
-69.3578 -178.28 988.137
-67.3828 -182.832 952.255
-65.4363 -183.464 925.479
-63.8732 -186.178 899.061
-63.7891 -189.878 872.594
-62.7122 -195.401 846.301
-58.9747 -201.003 820.27
-56.2171 -203.036 793.528
-53.6403 -204.026 766.558
-84.9769 -111.665 1160.6
-84.9769 -111.665 1160.6
-84.9769 -111.665 1160.6
-84.9769 -111.665 1160.6
-74.5571 -109.045 1154.46
-83.4771 -123.573 1109.53
-82.3317 -126.75 1100.61
-85.3352 -147.232 1057.26
-82.6297 -150.447 1048.43
-79.8374 -154.133 1039.71
-81.2875 -169.808 995.431
-78.8406 -173.388 986.677
-77.1523 -179.57 950.964
-75.8905 -181.879 924.243
-74.0903 -186.608 897.937
-73.1482 -192.231 871.587
-70.9392 -198.72 845.311
-65.2641 -205.564 819.493
-60.9521 -208.516 792.902
-57.5742 -210.237 765.929
-98.4866 -114.713 1160.6
-98.4866 -114.713 1160.6
-98.4866 -114.713 1160.6
-98.4866 -114.713 1160.6
-85.9933 -112.267 1154.6
-93.0397 -126.93 1109.8
-91.7531 -129.204 1100.7
-93.725 -149.836 1057.45
-91.5011 -152.468 1048.48
-89.2887 -155.886 1039.67
-91.8362 -170.239 995.081
-89.0005 -172.044 985.958
-88.4949 -178.93 950.082
-87.135 -183.872 923.563
-84.0344 -191.134 897.481
-81.2958 -197.564 871.153
-76.8276 -204.969 845.045
-69.6373 -211.788 819.239
-63.8801 -215.091 792.747
-59.1182 -217.716 765.945
-102.663 -123.944 1172.93
-102.326 -124.325 1168.26
-102.159 -124.116 1164.88
-102.147 -123.76 1165.91
-96.5416 -119.057 1155.53
-101.907 -133.579 1110.81
-100.901 -135.483 1101.62
-102.084 -154.529 1058.09
-100.374 -156.21 1048.89
-98.0424 -158.878 1039.93
-101.303 -173.406 995.369
-99.8115 -173.932 985.914
-99.3589 -182.12 949.985
-96.6652 -189.748 923.724
-91.5424 -198.292 897.717
-87.001 -205.827 871.46
-80.0788 -213.574 845.488
-71.5485 -219.67 819.612
-64.3129 -223.051 793.235
-57.9929 -225.392 766.617
-101.233 -132.018 1185.42
-101.175 -133.486 1176.51
-100.591 -134.364 1170.17
-101.446 -134.41 1168.2
-100.713 -132.001 1158.08
-105.935 -144.426 1112.94
-105.9 -145.004 1103.43
-109.198 -162.374 1059.46
-108.175 -163.301 1050.07
-106.658 -164.615 1040.79
-109.874 -178.834 996.184
-109.337 -178.875 986.587
-108.88 -189.857 950.87
-103.316 -199.027 924.746
-96.0886 -208.474 898.768
-88.8933 -215.704 872.524
-80.1401 -222.152 846.458
-70.3465 -227.665 820.591
-61.9931 -230.326 794.268
-54.6233 -232.977 767.828
-93.4925 -138.313 1197.39
-93.8861 -142.283 1185.65
-93.4282 -145.594 1176.57
-93.9872 -146.8 1171.18
-98.2098 -144.584 1160.88
-106.486 -154.717 1115.11
-108.003 -154.531 1105.37
-112.486 -170.457 1061.05
-112.25 -170.896 1051.53
-111.928 -171.323 1042.01
-115.63 -184.839 997.241
-115.298 -184.438 987.543
-113.213 -197.359 952.054
-105.866 -207.6 926.02
-96.5304 -216.935 900.031
-87.7957 -223.923 873.787
-77.7496 -229.81 847.731
-66.6291 -234.299 821.924
-57.1202 -236.571 795.78
-49.1586 -239.625 769.497
-85.6364 -143.813 1208.2
-85.2587 -149.661 1193.82
-85.0129 -154.732 1182.08
-85.3235 -156.916 1173.74
-92.4172 -155.021 1163.37
-103.748 -165.086 1117.44
-106.959 -164.988 1107.65
-113.039 -179.906 1063.05
-113.879 -179.932 1053.4
-114.745 -179.488 1043.64
-119.509 -192.495 998.735
-119.725 -191.47 988.883
-115.171 -206.317 953.683
-105.977 -216.381 927.553
-94.6101 -225.486 901.583
-84.3968 -231.843 875.336
-73.1766 -236.335 849.238
-61.0584 -239.31 823.46
-50.7285 -240.56 797.456
-40.5819 -242.749 771.736
-75.8388 -148.07 1217.82
-74.2574 -155.905 1201.46
-74.6517 -161.982 1186.86
-73.7954 -165.948 1176.2
-83.8443 -163.536 1165.59
-97.6494 -173.764 1119.57
-102.379 -173.76 1109.74
-110.428 -189.016 1065.12
-112.736 -188.51 1055.29
-114.705 -188.153 1045.52
-120.668 -200.576 1000.43
-122.032 -199.537 990.537
-114.711 -215.325 955.482
-103.576 -225.305 929.342
-90.6579 -233.051 903.218
-79.209 -237.98 876.897
-66.7954 -240.949 850.827
-54.283 -242.18 825.026
-43.01 -241.501 799.197
-32.3757 -240.247 773.593
-62.6141 -150.46 1225.82
-61.6414 -159.495 1207.1
-60.7785 -166.205 1190.53
-60.2434 -170.635 1177.85
-73.7513 -169.685 1167.38
-89.0602 -179.743 1121.24
-94.8969 -180.998 1111.63
-105.081 -196.812 1067.03
-108.744 -196.977 1057.29
-111.991 -196.403 1047.41
-118.952 -209.182 1002.37
-121.821 -207.931 992.368
-112.202 -223.902 957.334
-99.1607 -232.682 931.043
-84.8433 -239.304 904.867
-72.0892 -242.6 878.527
-59.8458 -243.271 852.249
-47.0821 -242.371 826.423
-36.1587 -238.798 800.485
-26.0176 -234.988 774.858
-45.3291 -149.196 1229.74
-45.5204 -158.081 1209.04
-45.861 -164.709 1191.46
-45.4135 -168.018 1178
-62.8826 -173.38 1168.69
-79.4541 -183.059 1122.39
-86.969 -185.459 1112.95
-97.6613 -202.678 1068.61
-102.706 -203.517 1058.96
-107.005 -203.537 1049.17
-114.777 -216.149 1004.05
-119.008 -215.789 994.191
-107.797 -230.949 959.011
-92.9351 -238.518 932.64
-77.4938 -243.801 906.423
-64.545 -245.183 879.943
-52.1097 -243.596 853.574
-40.4716 -240.054 827.471
-30.6647 -235.113 801.406
-21.0695 -230.243 775.808
