-70.324675 -79.312088 1276.210560
-71.085489 -79.080477 1275.776175
-72.478129 -79.021543 1275.843846
-73.797410 -78.797613 1275.510632
-75.165935 -78.664221 1275.398726
-76.575318 -78.585455 1275.422012
-77.922030 -78.391409 1275.162376
-79.309334 -78.248510 1275.031917
-80.846118 -78.290564 1275.359707
-82.305590 -78.200354 1275.363396
-83.825381 -78.159849 1275.493534
-84.978092 -77.689077 1274.552075
-86.344875 -77.460974 1274.216061
-87.593300 -77.109442 1273.570692
-88.951712 -76.865560 1273.196109
-90.333614 -76.635763 1272.858328
-91.573008 -76.291395 1272.194002
-92.995607 -76.067823 1271.911536
-94.144196 -75.636564 1271.062865
-95.639731 -75.466925 1270.884158
-96.794292 -75.041899 1270.051127
-98.054267 -74.692472 1269.412465
-99.364192 -74.372885 1268.851725
-100.584873 -73.993071 1268.135383
-102.117424 -73.795752 1267.896757
-103.187655 -73.330465 1266.933103
-104.994894 -73.249906 1267.034204
-106.054480 -72.762571 1266.039774
-107.367570 -72.406073 1265.392295
-108.909744 -72.152677 1265.022544
-110.216126 -71.775480 1264.325113
-111.417489 -71.346144 1263.487315
-112.620581 -70.913305 1262.644566
-113.775549 -70.458151 1261.740374
-114.997861 -70.027128 1260.903237
-115.939721 -69.486174 1259.764561
-116.959619 -68.976759 1258.712058
-117.958031 -68.460401 1257.639925
-118.708169 -67.862242 1256.337542
-119.715104 -67.350798 1255.282330
-120.356184 -66.730383 1253.907132
-121.140831 -66.149389 1252.671465
-121.971857 -65.602812 1251.482032
-122.634359 -65.003927 1250.165484
-123.621993 -64.494070 1249.106548
-124.027109 -63.838774 1247.617853
-124.586884 -63.229948 1246.260772
-125.719768 -62.753317 1245.303723
-126.029731 -62.095495 1243.795449
-126.587042 -61.497747 1242.464846
-127.378510 -60.948576 1241.284406
-127.942298 -60.356871 1239.969675
-128.669143 -59.796072 1238.752078
-129.383517 -59.232305 1237.526053
-129.924665 -58.641493 1236.209605
-130.908412 -58.106703 1235.113512
-131.138415 -57.482458 1233.650394
-131.751569 -56.903700 1232.373528
-132.429756 -56.331816 1231.122719
-133.292865 -55.777883 1229.941521
-133.865495 -55.189825 1228.635442
-134.511361 -54.606382 1227.353547
-135.067609 -54.012999 1226.034575
-135.750173 -53.428320 1224.753102
-136.410445 -52.837866 1223.455574
-137.112320 -52.245825 1222.160822
-137.726211 -51.644766 1220.831012
-138.309937 -51.038237 1219.484730
-138.840598 -50.426725 1218.117574
-139.359814 -49.811491 1216.740510
-139.828149 -49.192015 1215.345677
-140.373556 -48.570379 1213.957573
-140.870775 -47.944181 1212.551373
-141.326137 -47.314115 1211.129734
-142.021057 -46.677648 1209.728609
-142.414419 -46.039160 1208.277574
-142.754257 -45.398245 1206.813464
-143.384751 -44.744657 1205.362298
-143.982598 -44.084516 1203.890975
-144.340108 -43.428411 1202.393096
-144.660307 -42.769796 1200.883919
-144.969523 -42.107580 1199.364486
-145.255045 -41.442358 1197.834672
-145.884404 -40.745878 1196.281947
-146.191259 -40.066801 1194.722246
-146.476580 -39.383825 1193.150472
-146.996341 -38.671652 1191.544373
-147.694797 -37.930746 1189.896407
-148.260002 -37.191824 1188.234317
-148.470545 -36.485098 1186.595157
-148.633901 -35.777990 1184.948040
-149.214685 -35.006735 1183.212469
-149.556285 -34.258268 1181.492337
-149.805519 -36.178986 1186.070000
-149.796572 -35.756481 1185.070000
-149.804031 -35.285410 1184.070000
-150.073193 -34.891585 1183.070000
-149.973977 -34.347930 1182.070000
-150.448684 -34.023206 1181.070000
-150.832974 -33.587833 1180.070000
-151.281285 -33.196397 1179.070000
-151.343021 -32.700572 1178.070000
-151.225820 -32.275883 1177.070000
-150.995026 -31.862631 1176.070000
-150.982210 -31.451249 1175.070000
-151.443531 -31.048970 1174.070000
-151.414760 -30.618537 1173.070000
-151.208943 -30.149031 1172.070000
-150.907903 -29.695670 1171.070000
-150.654043 -29.296877 1170.070000
-150.896242 -28.918250 1169.070000
-150.954463 -28.472125 1168.070000
-151.165781 -28.054930 1167.070000
-151.180929 -27.674684 1166.070000
-150.757785 -27.249158 1165.070000
-150.576305 -26.823026 1164.070000
-150.469692 -26.406663 1163.070000
-150.306854 -25.991225 1162.070000
-150.119905 -25.576379 1161.070000
-150.213563 -25.160142 1160.070000
-150.334299 -24.761046 1159.070000
-150.055116 -24.315559 1158.070000
-150.153756 -23.896388 1157.070000
-150.241105 -23.459559 1156.070000
-150.561045 -23.094465 1155.070000
-150.151439 -22.626267 1154.070000
-149.924884 -22.216847 1153.070000
-149.515219 -21.787756 1152.070000
-149.563938 -21.386797 1151.070000
-149.877924 -20.943989 1150.070000
-150.558455 -20.491054 1149.070000
-150.737364 -20.056774 1148.070000
-150.693501 -19.623501 1147.070000
-150.886234 -19.187590 1146.070000
-150.987362 -18.759104 1145.070000
-150.781290 -18.278774 1144.070000
-150.917762 -17.913834 1143.070000
-150.818146 -17.488140 1142.070000
-151.005865 -17.065454 1141.070000
-151.339830 -16.632689 1140.070000
-151.636914 -16.193274 1139.070000
-151.842826 -15.743626 1138.070000
-152.039675 -15.308180 1137.070000
-152.157029 -14.900373 1136.070000
-152.033409 -14.430547 1135.070000
-152.428348 -14.014536 1134.070000
-152.402672 -13.593083 1133.070000
-152.365876 -13.172329 1132.070000
-152.465551 -12.743646 1131.070000
-152.561478 -12.335941 1130.070000
-152.441220 -11.884407 1129.070000
-152.147580 -11.453354 1128.070000
-152.210139 -11.066781 1127.070000
-152.392458 -10.594807 1126.070000
-152.700339 -10.186817 1125.070000
-152.708094 -9.755572 1124.070000
-153.031136 -9.322888 1123.070000
-152.731996 -8.915694 1122.070000
-152.709242 -9.048474 1121.070000
-152.688757 -9.178330 1120.070000
-152.745298 -9.313286 1119.070000
-152.688879 -9.440763 1118.070000
-152.733546 -9.574932 1117.070000
-152.631098 -9.702525 1116.070000
-152.532060 -9.831120 1115.070000
-152.327857 -9.942022 1114.070000
-152.252225 -10.067595 1113.070000
-152.267070 -10.198691 1112.070000
-152.373796 -10.335977 1111.070000
-152.380162 -10.472632 1110.070000
-152.320150 -10.594123 1109.070000
-152.233138 -10.722715 1108.070000
-152.377863 -10.863508 1107.070000
-152.375268 -10.994548 1106.070000
-152.510369 -11.134705 1105.070000
-152.506914 -11.265688 1104.070000
-152.461629 -11.393903 1103.070000
-152.138964 -11.494731 1102.070000
-152.118058 -11.628402 1101.070000
-152.086273 -11.762072 1100.070000
-152.064483 -11.892147 1099.070000
-152.076123 -12.025710 1098.070000
-152.077166 -12.161082 1097.070000
-152.021464 -12.291807 1096.070000
-151.947086 -12.413979 1095.070000
-151.919013 -12.538891 1094.070000
-151.932889 -12.671021 1093.070000
-151.865915 -12.797802 1092.070000
-151.852965 -12.928155 1091.070000
-151.814350 -13.056813 1090.070000
-151.774268 -13.185370 1089.070000
-151.667821 -13.309536 1088.070000
-151.494383 -13.429268 1087.070000
-151.434475 -13.556515 1086.070000
-151.317831 -13.736603 1085.070000
-151.145681 -13.853110 1084.070000
-150.955744 -13.928051 1083.070000
-150.756404 -14.036101 1082.070000
-150.636436 -14.154718 1081.070000
-150.572264 -14.281256 1080.070000
-149.911149 -14.374162 1079.070000
-150.036080 -14.513642 1078.070000
-150.020827 -14.643844 1077.070000
-149.920796 -14.768435 1076.070000
-149.721725 -14.881306 1075.070000
-149.545637 -14.971360 1074.070000
-149.515609 -15.105531 1073.070000
-149.565652 -15.252746 1072.070000
-149.571686 -15.400283 1071.070000
-149.429450 -15.528669 1070.070000
-149.159198 -15.642443 1069.070000
-148.982405 -15.757723 1068.070000
-148.708767 -15.869113 1067.070000
-148.530111 -15.988501 1066.070000
-148.379837 -16.109765 1065.070000
-148.174609 -16.227747 1064.070000
-147.917189 -16.341554 1063.070000
-147.765218 -16.462012 1062.070000
-147.679701 -16.596409 1061.070000
-147.521240 -16.714875 1060.070000
-147.378359 -16.826211 1059.070000
-147.350814 -16.959984 1058.070000
-147.270499 -17.085672 1057.070000
-147.195828 -17.211977 1056.070000
-146.914060 -17.324458 1055.070000
-146.463406 -17.426239 1054.070000
-145.402277 -17.458692 1053.070000
-145.216782 -17.563832 1052.070000
-145.601087 -17.738461 1051.070000
-145.708289 -17.896964 1050.070000
-145.654322 -18.029691 1049.070000
-145.555153 -18.154146 1048.070000
-145.437249 -18.277883 1047.070000
-145.315104 -18.400584 1046.070000
-145.221942 -18.525540 1045.070000
-145.087271 -18.647264 1044.070000
-144.972886 -18.770905 1043.070000
-144.936477 -18.899706 1042.070000
-144.564956 -18.998547 1041.070000
-144.242833 -19.100840 1040.070000
-144.196051 -19.239554 1039.070000
-144.053387 -19.386479 1038.070000
-143.850372 -19.516227 1037.070000
-143.419554 -19.586565 1036.070000
-143.217404 -19.704397 1035.070000
-143.055014 -19.824858 1034.070000
-142.961170 -19.949859 1033.070000
-142.889661 -20.082470 1032.070000
-142.147153 -20.158400 1031.070000
-141.749250 -20.231407 1030.070000
-141.276631 -20.363731 1029.070000
-141.175993 -20.488063 1028.070000
-141.219668 -20.621561 1027.070000
-141.062977 -20.749274 1026.070000
-141.092781 -20.875876 1025.070000
-140.643500 -20.977349 1024.070000
-140.584373 -21.104645 1023.070000
-140.452497 -21.244408 1022.070000
-140.155805 -21.361481 1021.070000
-139.910150 -21.453756 1020.070000
-139.585219 -21.572063 1019.070000
-139.420890 -21.696405 1018.070000
-139.215109 -21.801281 1017.070000
-138.977169 -21.916741 1016.070000
-138.737105 -22.032062 1015.070000
-138.170409 -22.108277 1014.070000
-138.079619 -22.248307 1013.070000
-138.002938 -22.379067 1012.070000
-137.950089 -22.505723 1011.070000
-137.857429 -22.636335 1010.070000
-137.824776 -22.767547 1009.070000
-137.693857 -22.881486 1008.070000
-137.553473 -23.003408 1007.070000
-137.400524 -23.124495 1006.070000
-136.647792 -23.205061 1005.070000
-136.246367 -23.275254 1004.070000
-136.113563 -23.426630 1003.070000
-135.782007 -23.542166 1002.070000
-135.722328 -23.670477 1001.070000
-135.717901 -23.795540 1000.070000
-135.184268 -23.896271 999.070000
-134.989343 -24.014580 998.070000
-134.729357 -24.184904 997.070000
-134.105484 -24.225392 996.070000
-133.962770 -24.338491 995.070000
-133.823557 -24.490948 994.070000
-133.302318 -24.558969 993.070000
-133.113802 -24.677703 992.070000
-132.925340 -24.796438 991.070000
-132.699586 -24.935153 990.070000
-131.891113 -24.990804 989.070000
-131.694382 -25.126279 988.070000
-131.126817 -25.194743 987.070000
-131.306173 -25.343189 986.070000
-130.919541 -25.450939 985.070000
-130.842961 -25.577079 984.070000
-130.567771 -25.690075 983.070000
-130.534957 -25.818453 982.070000
-130.336396 -25.972232 981.070000
-129.535862 -25.991894 980.070000
-129.204428 -26.124676 979.070000
-128.837475 -26.231595 978.070000
-128.418495 -26.340745 977.070000
-128.113863 -26.450514 976.070000
-127.945166 -26.563197 975.070000
-127.954467 -26.753864 974.070000
-127.733504 -26.840409 973.070000
-126.889973 -26.885486 972.070000
-126.836172 -27.015754 971.070000
-126.727511 -27.146985 970.070000
-126.433713 -27.240781 969.070000
-125.910683 -27.345598 968.070000
-125.290249 -27.411667 967.070000
-125.260754 -27.569376 966.070000
-125.431783 -27.711909 965.070000
-125.274989 -27.832747 964.070000
-125.098772 -27.952293 963.070000
-125.129838 -28.088250 962.070000
-125.143959 -28.282954 961.070000
-124.831459 -28.370365 960.070000
-124.336311 -28.426978 959.070000
-124.232467 -28.551300 958.070000
-124.127519 -28.675270 957.070000
-123.980175 -28.796729 956.070000
-123.802688 -28.916192 955.070000
-123.733910 -28.997435 954.070000
-123.769735 -29.133190 953.070000
-123.968324 -29.297275 952.070000
-123.845214 -29.414747 951.070000
-123.995216 -29.567684 950.070000
-124.041747 -29.715816 949.070000
-124.022796 -29.850056 948.070000
-124.015382 -29.970016 947.070000
-124.014446 -30.081679 946.070000
-123.861667 -30.150393 945.070000
-124.471698 -30.388433 944.070000
-124.362623 -30.493201 943.070000
-124.353728 -30.600793 942.070000
-124.525676 -30.763753 941.070000
-124.906087 -30.948291 940.070000
-125.222265 -31.127661 939.070000
-125.726254 -31.274495 938.070000
-125.709936 -31.423288 937.070000
-125.863693 -31.537051 936.070000
-125.751798 -31.621449 935.070000
-125.722309 -31.765545 934.070000
-126.022184 -31.926545 933.070000
-126.030368 -32.060279 932.070000
-126.013443 -32.204963 931.070000
-126.108830 -32.349157 930.070000
-126.185613 -32.485450 929.070000
-126.364099 -32.628475 928.070000
-126.610614 -32.776007 927.070000
-126.684385 -32.912101 926.070000
-126.957615 -33.061397 925.070000
-127.393676 -33.249329 924.070000
-127.406924 -33.351938 923.070000
-128.137473 -33.588314 922.070000
-128.188003 -33.721406 921.070000
-128.024785 -33.739724 920.070000
-128.304601 -33.881017 919.070000
-128.848890 -34.100832 918.070000
-129.730730 -34.304114 917.070000
-130.525974 -34.478516 916.070000
-131.402596 -34.669120 915.070000
-132.130168 -34.847392 914.070000
-132.581048 -35.008325 913.070000
-133.554477 -35.241809 912.070000
-133.944177 -35.357051 911.070000
-134.889305 -35.554620 910.070000
-135.581618 -35.751565 909.070000
-135.693099 -35.862778 908.070000
-136.004042 -35.997131 907.070000
-136.661957 -36.197224 906.070000
-137.216631 -36.330905 905.070000
-138.081916 -36.542254 904.070000
-138.536955 -36.714984 903.070000
-139.458046 -36.950597 902.070000
-139.816580 -37.109210 901.070000
-140.331531 -37.226992 900.070000
-140.713787 -37.383512 899.070000
-141.253975 -37.550488 898.070000
-142.090130 -37.772633 897.070000
-142.385517 -37.844077 896.070000
-143.219460 -38.081160 895.070000
-143.527381 -38.228398 894.070000
-143.715068 -38.371136 893.070000
-144.112482 -38.530580 892.070000
-144.618196 -38.673329 891.070000
-145.284591 -38.924890 890.070000
-145.987611 -39.044743 889.070000
-146.681128 -39.221860 888.070000
-147.268199 -39.408252 887.070000
-147.370295 -39.529902 886.070000
-147.722012 -39.644411 885.070000
-148.223624 -39.820868 884.070000
-148.774145 -40.026838 883.070000
-149.347041 -40.188657 882.070000
-149.681745 -40.340820 881.070000
-150.043321 -40.475593 880.070000
-150.174823 -40.615778 879.070000
-150.497762 -40.786540 878.070000
-150.940294 -40.912568 877.070000
-151.380968 -41.070145 876.070000
-152.111681 -41.287093 875.070000
-152.735703 -41.459616 874.070000
-153.391295 -41.634227 873.070000
-154.231500 -41.826481 872.070000
-154.851012 -41.994277 871.070000
-154.962634 -42.129646 870.070000
-155.425926 -42.290827 869.070000
-156.330480 -42.511599 868.070000
-156.790332 -42.659331 867.070000
-157.751608 -42.858952 866.070000
-158.121600 -42.997110 865.070000
-158.491941 -43.153621 864.070000
-159.222653 -43.332634 863.070000
-159.849432 -43.523336 862.070000
-160.040635 -43.620170 861.070000
-160.925711 -43.838727 860.070000
-161.435489 -44.003687 859.070000
-161.961216 -44.169693 858.070000
-162.048264 -44.306669 857.070000
-162.675715 -44.479417 856.070000
-163.395604 -44.669077 855.070000
-163.629726 -44.756883 854.070000
-164.463000 -44.965610 853.070000
-165.019000 -45.163285 852.070000
-165.410519 -45.319899 851.070000
-165.970751 -45.478147 850.070000
-166.403910 -45.642808 849.070000
-167.030992 -45.841088 848.070000
-167.321134 -45.949984 847.070000
-168.041459 -46.151494 846.070000
-168.114432 -46.264574 845.070000
-168.644670 -46.449078 844.070000
-169.019834 -46.605130 843.070000
-169.445315 -46.764507 842.070000
-169.880821 -46.924550 841.070000
-170.279574 -47.082156 840.070000
-170.444847 -47.224311 839.070000
-170.792344 -47.378524 838.070000
-170.972508 -47.521660 837.070000
-171.173783 -47.666191 836.070000
-171.346868 -47.808860 835.070000
-171.829947 -47.972052 834.070000
-172.279059 -48.132996 833.070000
-172.467814 -48.276705 832.070000
-172.795864 -48.429629 831.070000
-172.962154 -48.571854 830.070000
-173.237737 -48.721303 829.070000
-173.555533 -48.873554 828.070000
-173.904130 -49.027840 827.070000
-174.207495 -49.179136 826.070000
-174.591015 -49.341571 825.070000
-174.728944 -49.476078 824.070000
-174.782434 -49.610832 823.070000
-174.980205 -49.755136 822.070000
-175.051972 -49.891093 821.070000
-175.415787 -50.046389 820.070000
-175.472694 -50.181368 819.070000
-175.438331 -50.310308 818.070000
-175.425500 -50.440667 817.070000
-175.842163 -50.599462 816.070000
-176.007393 -50.741612 815.070000
-176.301860 -50.892314 814.070000
-176.454546 -51.033634 813.070000
-176.544184 -51.170778 812.070000
-176.583587 -51.304602 811.070000
-176.649846 -51.440200 810.070000
-176.715258 -51.575744 809.070000
-176.752288 -51.709403 808.070000
-176.842217 -51.846575 807.070000
-177.035410 -51.991124 806.070000
-177.195811 -52.138316 805.070000
-176.904400 -52.217933 804.070000
-176.875953 -52.353888 803.070000
-177.262932 -52.557916 802.070000
-177.202356 -52.675885 801.070000
-177.160871 -52.793673 800.070000
-177.256687 -52.928551 799.070000
-177.471635 -53.066609 798.070000
-177.486780 -53.199238 797.070000
-177.479389 -53.332298 796.070000
-177.576646 -53.468535 795.070000
-177.560517 -53.596443 794.070000
-177.519802 -53.721278 793.070000
-177.309380 -53.810708 792.070000
-177.199512 -53.905120 791.070000
-177.238289 -54.073855 790.070000
-177.355746 -54.238234 789.070000
-177.501389 -54.383233 788.070000
-177.690322 -54.526952 787.070000
-177.660972 -54.656222 786.070000
-177.563570 -54.780985 785.070000
-177.482173 -54.906815 784.070000
-177.554051 -55.042785 783.070000
-177.531167 -55.172484 782.070000
-177.539143 -55.304221 781.070000
-177.497033 -55.430427 780.070000
-177.495426 -55.549299 779.070000
-177.579923 -55.689387 778.070000
-177.587596 -55.822336 777.070000
-177.526288 -55.959354 776.070000
-177.661211 -56.109193 775.070000
-177.616602 -56.233960 774.070000
-177.435762 -56.347205 773.070000
-177.392386 -56.479230 772.070000
-177.414171 -56.604522 771.070000
-177.422781 -56.751014 770.070000
-177.357914 -56.901970 769.070000
-176.998210 -56.973087 768.070000
-176.828278 -57.093787 767.070000
-176.720232 -57.216676 766.070000
-176.689692 -57.345935 765.070000
-176.568152 -57.468972 764.070000
-176.443870 -57.595219 763.070000
-176.014564 -57.696324 762.070000
-175.845079 -57.816320 761.070000
-175.601431 -57.931408 760.070000
-175.480746 -58.054624 759.070000
-175.405929 -58.179845 758.070000
-175.373141 -58.308328 757.070000
-175.345355 -58.442298 756.070000
-175.241317 -58.561268 755.070000
-175.128490 -58.673582 754.070000
-174.987358 -58.803654 753.070000
-174.921835 -58.936178 752.070000
-174.832411 -59.060749 751.070000
-174.460408 -59.173781 750.070000
-174.138734 -59.281561 749.070000
-173.827263 -59.388512 748.070000
-173.812640 -59.518749 747.070000
-173.757722 -59.646328 746.070000
-173.629872 -59.769076 745.070000
-173.246572 -59.877705 744.070000
-172.820788 -59.991380 743.070000
-172.277438 -60.071636 742.070000
-171.846139 -60.162850 741.070000
-171.190701 -60.256738 740.070000
-170.801764 -60.369140 739.070000
-170.472991 -60.478593 738.070000
-170.099970 -60.585114 737.070000
-169.738055 -60.691922 736.070000
-169.432850 -60.799891 735.070000
-169.066128 -60.911159 734.070000
-168.677084 -61.020105 733.070000
-168.110269 -61.107746 732.070000
-167.635458 -61.213020 731.070000
-167.404281 -61.330661 730.070000
-167.100220 -61.436327 729.070000
-166.642710 -61.537166 728.070000
-166.208238 -61.639619 727.070000
-165.817939 -61.764529 726.070000
-165.515662 -61.874021 725.070000
-164.877027 -61.946661 724.070000
-164.210236 -62.023377 723.070000
-163.669177 -62.127602 722.070000
-162.927539 -62.209720 721.070000
-162.514297 -62.327547 720.070000
-161.969722 -62.410179 719.070000
-161.462856 -62.508312 718.070000
-161.138221 -62.641723 717.070000
-160.637504 -62.714187 716.070000
-160.145067 -62.812802 715.070000
-159.449936 -62.898305 714.070000
-158.599095 -62.961589 713.070000
-157.950813 -63.053936 712.070000
-157.365940 -63.151630 711.070000
-156.757954 -63.248718 710.070000
-156.234332 -63.341206 709.070000
-155.897949 -63.450153 708.070000
-155.671434 -63.576513 707.070000
-155.657825 -63.712840 706.070000
-151.323938 -63.027060 698.595000
