-55.579238 -104.083309 1161.070000
-55.734577 -103.757963 1160.070000
-55.873097 -103.763406 1159.070000
-56.035865 -103.111512 1158.070000
-55.916815 -109.534651 1157.070000
-56.324143 -102.492786 1156.070000
-56.187466 -109.593751 1155.070000
-56.599892 -101.895970 1154.070000
-56.431401 -110.139567 1153.070000
-56.863843 -101.309916 1152.070000
-56.634431 -111.696805 1151.070000
-57.117601 -100.704070 1150.070000
-57.013165 -107.593728 1149.070000
-57.360608 -100.097895 1148.070000
-57.326305 -104.890567 1147.070000
-57.593121 -99.491400 1146.070000
-57.594733 -103.126557 1145.070000
-57.815377 -98.884592 1144.070000
-57.845779 -101.480303 1143.070000
-58.028092 -98.252145 1142.070000
-58.076262 -100.127418 1141.070000
-58.232439 -97.541447 1140.070000
-58.334743 -97.074672 1139.070000
-58.430252 -96.714206 1138.070000
-58.534816 -95.898210 1137.070000
-58.634287 -95.197340 1136.070000
-58.726070 -94.762613 1135.070000
-58.819076 -94.043936 1134.070000
-58.905820 -93.523859 1133.070000
-58.993557 -92.807388 1132.070000
-59.074059 -92.374228 1131.070000
-59.150551 -92.060821 1130.070000
-59.220452 -92.012747 1129.070000
-59.285408 -92.156750 1128.070000
-59.355109 -91.928042 1127.070000
-59.416481 -92.078416 1126.070000
-59.481761 -91.899919 1125.070000
-59.543846 -91.801225 1124.070000
-59.605090 -91.655474 1123.070000
-59.664598 -91.512198 1122.070000
-59.723268 -91.344395 1121.070000
-59.778640 -91.254563 1120.070000
-59.832860 -91.142023 1119.070000
-59.882530 -91.280182 1118.070000
-59.932224 -91.298945 1117.070000
-59.980207 -91.347453 1116.070000
-60.026510 -91.425547 1115.070000
-60.072514 -91.374804 1114.070000
-60.116682 -91.376761 1113.070000
-60.160820 -91.224195 1112.070000
-60.201567 -91.309523 1111.070000
-60.241704 -91.310882 1110.070000
-60.280500 -91.310581 1109.070000
-60.321273 -90.896151 1108.070000
-60.357955 -90.785312 1107.070000
-60.391813 -90.896998 1106.070000
-60.424559 -90.980225 1105.070000
-60.453474 -91.400437 1104.070000
-60.482478 -91.641238 1103.070000
-60.515556 -91.380392 1102.070000
-60.545363 -91.327811 1101.070000
-60.573547 -91.175275 1100.070000
-60.601332 -91.050020 1099.070000
-60.625644 -91.209660 1098.070000
-60.648852 -91.307807 1097.070000
-60.671668 -91.218717 1096.070000
-60.694665 -90.917825 1095.070000
-60.715230 -90.982781 1094.070000
-60.736127 -90.906004 1093.070000
-60.753647 -90.922229 1092.070000
-60.772068 -90.362039 1091.070000
-60.788877 -90.282101 1090.070000
-60.804866 -90.095618 1089.070000
-60.819106 -90.098486 1088.070000
-60.832371 -89.991194 1087.070000
-60.845639 -89.655206 1086.070000
-60.857214 -89.570955 1085.070000
-60.867610 -89.628067 1084.070000
-60.877556 -89.518180 1083.070000
-60.886800 -89.326043 1082.070000
-60.894505 -89.255965 1081.070000
-60.901875 -89.079561 1080.070000
-60.908487 -88.882378 1079.070000
-60.915173 -88.571598 1078.070000
-60.919757 -88.530530 1077.070000
-60.923369 -88.079055 1076.070000
-60.926105 -88.055811 1075.070000
-60.927540 -88.117967 1074.070000
-60.928431 -88.234535 1073.070000
-60.928926 -88.234537 1072.070000
-60.929035 -88.103824 1071.070000
-60.927741 -88.140218 1070.070000
-60.926296 -88.123858 1069.070000
-60.925183 -87.842462 1068.070000
-60.923672 -87.562644 1067.070000
-60.920182 -87.122386 1066.070000
-60.916054 -87.214417 1065.070000
-60.911534 -87.099069 1064.070000
-60.906432 -87.125203 1063.070000
-60.900968 -87.075239 1062.070000
-60.894652 -87.284803 1061.070000
-60.887695 -87.279283 1060.070000
-60.879829 -87.184702 1059.070000
-60.871841 -87.006268 1058.070000
-60.863878 -86.889777 1057.070000
-60.855458 -86.655987 1056.070000
-60.847391 -86.598956 1055.070000
-60.836714 -86.693321 1054.070000
-60.826006 -86.634956 1053.070000
-60.815277 -86.638753 1052.070000
-60.804848 -86.356646 1051.070000
-60.796123 -85.594927 1050.070000
-60.784391 -85.575152 1049.070000
-60.771083 -85.840623 1048.070000
-60.758573 -85.848515 1047.070000
-60.745751 -86.030512 1046.070000
-60.735118 -85.548921 1045.070000
-60.721374 -85.462011 1044.070000
-60.707264 -85.521486 1043.070000
-60.692669 -85.606365 1042.070000
-60.678545 -85.482974 1041.070000
-60.664776 -85.294411 1040.070000
-60.652386 -84.976852 1039.070000
-60.637678 -84.983813 1038.070000
-60.622625 -85.086989 1037.070000
-60.607562 -85.207398 1036.070000
-60.593390 -85.090308 1035.070000
-60.580841 -84.706338 1034.070000
-60.564473 -84.784248 1033.070000
-60.548972 -84.729249 1032.070000
-60.533384 -84.700158 1031.070000
-60.520671 -84.218559 1030.070000
-60.505859 -84.080930 1029.070000
-60.489285 -84.202660 1028.070000
-60.473412 -84.236887 1027.070000
-60.456810 -84.358638 1026.070000
-60.441024 -84.384395 1025.070000
-60.425238 -84.358500 1024.070000
-60.408461 -84.498796 1023.070000
-60.393369 -84.379620 1022.070000
-60.381701 -83.873323 1021.070000
-60.368049 -83.609901 1020.070000
-60.357033 -83.066415 1019.070000
-60.343748 -82.821873 1018.070000
-60.328685 -82.831390 1017.070000
-60.313127 -82.907264 1016.070000
-60.298324 -82.905094 1015.070000
-60.283679 -82.902809 1014.070000
-60.271318 -82.657330 1013.070000
-60.257654 -82.583606 1012.070000
-60.243692 -82.579421 1011.070000
-60.231290 -82.422447 1010.070000
-60.218874 -82.308506 1009.070000
-60.207560 -82.087694 1008.070000
-60.194637 -82.078940 1007.070000
-60.184986 -81.735114 1006.070000
-60.173122 -81.680392 1005.070000
-60.162027 -81.590281 1004.070000
-60.149723 -81.643272 1003.070000
-60.141268 -81.299634 1002.070000
-60.129441 -81.362487 1001.070000
-60.119550 -81.264645 1000.070000
-60.107220 -81.386840 999.070000
-60.095406 -81.503357 998.070000
-60.081884 -81.830846 997.070000
-60.071661 -81.882976 996.070000
-60.061231 -81.918780 995.070000
-60.053354 -81.760253 994.070000
-60.043195 -81.850402 993.070000
-60.032883 -81.993208 992.070000
-60.023428 -82.064921 991.070000
-60.015482 -82.015123 990.070000
-60.006832 -82.076929 989.070000
-60.001960 -81.850128 988.070000
-59.994448 -81.848088 987.070000
-59.986687 -81.857747 986.070000
-59.979707 -81.846888 985.070000
-59.972903 -81.838096 984.070000
-59.963973 -82.020188 983.070000
-59.955455 -82.248105 982.070000
-59.948360 -82.327554 981.070000
-59.937625 -82.906697 980.070000
-59.932246 -82.903153 979.070000
-59.923678 -83.041366 978.070000
-59.919313 -82.964941 977.070000
-59.911444 -83.315399 976.070000
-59.904515 -83.477048 975.070000
-59.893980 -84.080200 974.070000
-59.886724 -84.332116 973.070000
-59.878070 -84.799998 972.070000
-59.873301 -84.947322 971.070000
-59.869210 -85.063430 970.070000
-59.865797 -85.101740 969.070000
-59.862644 -85.140200 968.070000
-59.856680 -85.423441 967.070000
-59.852177 -85.576292 966.070000
-59.844673 -85.988754 965.070000
-59.840919 -86.259346 964.070000
-59.836872 -86.572358 963.070000
-59.828044 -87.218152 962.070000
-59.824338 -87.507968 961.070000
-59.822044 -87.654833 960.070000
-59.823588 -87.513653 959.070000
-59.823886 -87.513657 958.070000
-59.824217 -87.532714 957.070000
-59.820293 -87.812724 956.070000
-59.817850 -88.224951 955.070000
-59.810617 -88.865535 954.070000
-59.809184 -89.173575 953.070000
-59.810631 -89.206739 952.070000
-59.813841 -89.106225 951.070000
-59.817497 -89.045557 950.070000
-59.819714 -89.124349 949.070000
-59.816708 -89.657774 948.070000
-59.818930 -89.781049 947.070000
-59.823297 -89.747001 946.070000
-59.827797 -89.704103 945.070000
-59.833792 -89.514726 944.070000
-59.834648 -89.839329 943.070000
-59.837500 -89.984349 942.070000
-59.842113 -90.032309 941.070000
-59.847484 -90.054201 940.070000
-59.852626 -90.131408 939.070000
-59.855174 -90.459024 938.070000
-59.854968 -90.996434 937.070000
-59.853808 -91.667988 936.070000
-59.851490 -92.515820 935.070000
-59.853804 -92.937582 934.070000
-59.855398 -93.453477 933.070000
-59.859207 -93.881153 932.070000
-59.863736 -94.187653 931.070000
-59.868092 -94.592552 930.070000
-59.872723 -94.976083 929.070000
-59.878234 -95.378672 928.070000
-59.881700 -95.900757 927.070000
-59.886997 -96.335637 926.070000
-59.894470 -96.565224 925.070000
-59.902207 -96.869270 924.070000
-59.908411 -97.337891 923.070000
-59.919827 -97.333622 922.070000
-59.931334 -97.395935 921.070000
-59.943458 -97.386164 920.070000
-59.955150 -97.451376 919.070000
-59.961751 -98.007244 918.070000
-59.963099 -99.165895 917.070000
-59.969137 -99.936011 916.070000
-59.981139 -100.138200 915.070000
-59.992823 -100.416181 914.070000
-60.003620 -100.800492 913.070000
-60.016295 -101.011895 912.070000
-60.031375 -101.015034 911.070000
-60.048948 -100.776855 910.070000
-60.066345 -100.584148 909.070000
-60.080621 -100.781901 908.070000
-60.097838 -100.677131 907.070000
-60.112120 -100.957006 906.070000
-60.124805 -101.448980 905.070000
-60.140686 -101.633911 904.070000
-60.152002 -102.376598 903.070000
-60.166069 -102.894644 902.070000
-60.183958 -102.999413 901.070000
-60.199498 -103.434576 900.070000
-60.215562 -103.832694 899.070000
-60.230960 -104.416200 898.070000
-60.245553 -105.198040 897.070000
-60.262911 -105.630745 896.070000
-60.282289 -105.955791 895.070000
-60.301595 -106.173396 894.070000
-60.322272 -106.247981 893.070000
-60.343158 -106.404503 892.070000
-60.363003 -106.780095 891.070000
-60.386101 -106.731186 890.070000
-60.412753 -106.249991 889.070000
-60.436823 -105.930508 888.070000
-60.461772 -105.722983 887.070000
-60.484604 -105.881641 886.070000
-60.507457 -106.118342 885.070000
-60.530962 -106.324651 884.070000
-60.554785 -106.458774 883.070000
-60.579218 -106.622950 882.070000
-60.603438 -106.939065 881.070000
-60.627159 -107.364488 880.070000
-60.651688 -107.804906 879.070000
-60.675090 -108.660530 878.070000
-60.700029 -108.985578 877.070000
-60.726923 -109.378323 876.070000
-60.753102 -109.768277 875.070000
-60.779949 -110.603761 874.070000
-60.806573 -110.969358 873.070000
-60.835044 -111.583269 872.070000
-60.864843 -112.137769 871.070000
-60.895557 -112.089594 870.070000
-60.926411 -112.149857 869.070000
-60.957553 -112.013445 868.070000
-60.988042 -111.905733 867.070000
-61.019170 -111.954938 866.070000
-61.050724 -112.194790 865.070000
-61.082768 -112.664029 864.070000
-61.115062 -113.398445 863.070000
-61.148227 -114.109416 862.070000
-61.181902 -114.451590 861.070000
-61.216193 -114.965541 860.070000
-61.250972 -115.129901 859.070000
-61.286062 -115.363896 858.070000
-61.321496 -115.463241 857.070000
-61.357181 -115.893525 856.070000
-61.393195 -115.506934 855.070000
-61.429603 -115.421987 854.070000
-61.466255 -115.068804 853.070000
-61.501370 -114.323143 852.070000
-61.537793 -114.021064 851.070000
-61.573872 -113.277876 850.070000
-61.610419 -113.051872 849.070000
-61.648628 -112.828151 848.070000
-61.685882 -112.754445 847.070000
-61.723284 -112.653823 846.070000
-61.761935 -112.669755 845.070000
-61.800898 -112.676368 844.070000
-61.844182 -113.610212 843.070000
-61.884455 -113.668609 842.070000
-61.924529 -113.670542 841.070000
-61.964919 -113.724787 840.070000
-62.005844 -113.777705 839.070000
-62.046918 -113.853224 838.070000
-62.088137 -113.790268 837.070000
-62.132022 -114.150850 836.070000
-62.174196 -114.232899 835.070000
-62.217787 -114.408861 834.070000
-62.261508 -114.574637 833.070000
-62.307415 -114.943272 832.070000
-62.351153 -115.016988 831.070000
-62.396621 -115.257485 830.070000
-62.442116 -115.459341 829.070000
-62.486587 -115.511118 828.070000
-62.531797 -115.602502 827.070000
-62.577710 -115.701131 826.070000
-62.628154 -116.272153 825.070000
-62.679059 -116.855431 824.070000
-62.725634 -116.949185 823.070000
-62.771582 -116.958643 822.070000
-62.815419 -116.834204 821.070000
-62.861792 -116.867926 820.070000
-62.911039 -117.059675 819.070000
-62.960516 -117.334424 818.070000
-63.011753 -117.600263 817.070000
-63.059078 -117.609371 816.070000
-63.109429 -117.679988 815.070000
-63.158808 -117.794737 814.070000
-63.208748 -118.044819 813.070000
-63.257707 -118.167592 812.070000
-63.306027 -118.179719 811.070000
-63.356748 -118.337300 810.070000
-63.413072 -118.816872 809.070000
-63.464781 -118.984035 808.070000
-63.515087 -119.081215 807.070000
-63.564386 -119.082895 806.070000
-63.615080 -119.159238 805.070000
-63.672367 -119.602435 804.070000
-63.722398 -119.616885 803.070000
-63.776834 -119.871040 802.070000
-63.831660 -120.124448 801.070000
-63.887276 -120.419840 800.070000
-63.933956 -120.193649 799.070000
-63.991449 -120.526197 798.070000
-64.049539 -120.920794 797.070000
-64.111162 -121.453587 796.070000
-64.169485 -121.783350 795.070000
-64.221581 -121.814634 794.070000
-64.274000 -121.879897 793.070000
-64.322288 -121.685097 792.070000
-64.379607 -121.887290 791.070000
-64.435599 -122.110820 790.070000
-64.487878 -122.121498 789.070000
-64.549143 -122.526829 788.070000
-64.605570 -122.717423 787.070000
-64.667068 -123.080312 786.070000
-64.726762 -123.365898 785.070000
-64.782692 -123.491457 784.070000
-64.837891 -123.589193 783.070000
-64.894785 -123.756790 782.070000
-64.941670 -123.530725 781.070000
-65.001710 -123.790173 780.070000
-65.055756 -123.827347 779.070000
-65.112527 -123.959232 778.070000
-65.178228 -124.430857 777.070000
-65.231795 -124.438354 776.070000
-65.285373 -124.446546 775.070000
-65.342925 -124.600693 774.070000
-65.400052 -124.729280 773.070000
-65.458746 -124.912975 772.070000
-65.522097 -125.211400 771.070000
-65.576753 -125.246795 770.070000
-65.634686 -125.408848 769.070000
-65.689320 -125.440199 768.070000
-65.759558 -125.971466 767.070000
-65.822423 -126.265625 766.070000
-65.887048 -126.656029 765.070000
-65.948562 -126.881225 764.070000
-66.005172 -126.980748 763.070000
-66.061495 -127.068417 762.070000
-66.118186 -127.153610 761.070000
-66.186074 -127.583408 760.070000
-66.242785 -127.665352 759.070000
-66.297534 -127.700804 758.070000
-66.359806 -127.952845 757.070000
-66.415007 -128.003624 756.070000
-66.480769 -128.345456 755.070000
-66.534069 -128.333798 754.070000
-66.596076 -128.577218 753.070000
-66.650328 -128.592496 752.070000
-66.711799 -128.821808 751.070000
-66.755670 -128.546378 750.070000
-66.819166 -128.840513 749.070000
-66.872255 -128.840121 748.070000
-66.927051 -128.895977 747.070000
-66.979402 -128.883516 746.070000
-67.034292 -128.946965 745.070000
-67.085477 -128.882776 744.070000
-67.147220 -129.134212 743.070000
-67.207449 -129.312503 742.070000
-67.268247 -129.529901 741.070000
-67.325727 -129.661546 740.070000
-67.382244 -129.772837 739.070000
-67.432562 -129.722680 738.070000
-67.485250 -129.746785 737.070000
-67.541296 -129.874456 736.070000
-67.603118 -130.116590 735.070000
-67.660995 -130.273557 734.070000
-67.716555 -130.382730 733.070000
-67.777920 -130.624484 732.070000
-67.834872 -130.769018 731.070000
-67.895670 -131.003866 730.070000
-67.948016 -131.048221 729.070000
-67.998490 -131.052025 728.070000
-68.050260 -131.086861 727.070000
-68.105950 -131.216865 726.070000
-68.164688 -131.422601 725.070000
-68.220616 -131.568720 724.070000
-68.275341 -131.687948 723.070000
-68.332295 -131.857517 722.070000
-68.387827 -132.006233 721.070000
-68.445149 -132.189198 720.070000
-68.495831 -132.241149 719.070000
-68.544854 -132.261117 718.070000
-68.600455 -132.426661 717.070000
-68.655990 -132.596117 716.070000
-68.712577 -132.779076 715.070000
-68.771183 -133.017150 714.070000
-68.821454 -133.088964 713.070000
-68.879950 -133.333222 712.070000
-68.933415 -133.484532 711.070000
-68.986779 -133.628376 710.070000
-69.040965 -133.799906 709.070000
-69.088181 -133.833354 708.070000
-69.138332 -133.934208 707.070000
-69.200649 -134.273769 706.070000
-69.317727 -134.433193 698.595000
