-56.994723 -29.793256 1309.254101
-57.624454 -30.316248 1308.910706
-58.242670 -30.834288 1308.564399
-58.849395 -31.347558 1308.215266
-59.444654 -31.856243 1307.863392
-60.028473 -32.360529 1307.508862
-60.600876 -32.860600 1307.151762
-61.161889 -33.356640 1306.792177
-61.711537 -33.848833 1306.430193
-62.249845 -34.337366 1306.065895
-62.776837 -34.822420 1305.699368
-63.292540 -35.304183 1305.330697
-63.796978 -35.782837 1304.959969
-64.290176 -36.258569 1304.587269
-64.772159 -36.731561 1304.212681
-65.242953 -37.201999 1303.836292
-65.702583 -37.670067 1303.458186
-66.151073 -38.135950 1303.078450
-66.588449 -38.599833 1302.697168
-67.014735 -39.061899 1302.314427
-67.429958 -39.522334 1301.930310
-67.834141 -39.981322 1301.544904
-68.227311 -40.439048 1301.158295
-68.609491 -40.895696 1300.770567
-68.980708 -41.351451 1300.381806
-69.340987 -41.806497 1299.992097
-69.690352 -42.261018 1299.601526
-70.028828 -42.715201 1299.210179
-70.356441 -43.169228 1298.818139
-70.673216 -43.623285 1298.425494
-70.979177 -44.077556 1298.032328
-71.274351 -44.532225 1297.638727
-71.558762 -44.987478 1297.244776
-71.832434 -45.443499 1296.850561
-72.095394 -45.900471 1296.456166
-72.347666 -46.358581 1296.061678
-72.589276 -46.818012 1295.667181
-72.820248 -47.278950 1295.272762
-73.040607 -47.741578 1294.878505
-73.250380 -48.206081 1294.484497
-73.449590 -48.672643 1294.090821
-73.638263 -49.141450 1293.697565
-73.816423 -49.612686 1293.304812
-73.984097 -50.086535 1292.912649
-74.141309 -50.563182 1292.521161
-74.288084 -51.042811 1292.130434
-74.424448 -51.525608 1291.740552
-74.550425 -52.011756 1291.351601
-74.666040 -52.501440 1290.963667
-74.771319 -52.994845 1290.576834
-74.866287 -53.492155 1290.191189
-74.950969 -53.993556 1289.806817
-75.025389 -54.499230 1289.423803
-75.089574 -55.009363 1289.042233
-75.143547 -55.524140 1288.662191
-75.187335 -56.043745 1288.283764
-75.220962 -56.568363 1287.907037
-75.244453 -57.098178 1287.532094
-75.257833 -57.633374 1287.159023
-75.261129 -58.174137 1286.787907
-75.254363 -58.720651 1286.418832
-75.237563 -59.273100 1286.051885
-75.210752 -59.831669 1285.687149
-75.173957 -60.396543 1285.324711
-75.127201 -60.967906 1284.964656
-75.070510 -61.545942 1284.607069
-75.003910 -62.130837 1284.252036
-74.927424 -62.722774 1283.899643
-74.841079 -63.321939 1283.549973
-74.744900 -63.928516 1283.203114
-74.638911 -64.542689 1282.859150
-74.523138 -65.164643 1282.518167
-74.397606 -65.794562 1282.180249
-74.262339 -66.432632 1281.845484
-74.117363 -67.079036 1281.513955
-73.962704 -67.733960 1281.185749
-73.798417 -68.397536 1280.860891
-73.624693 -69.069694 1280.539166
-73.441749 -69.750309 1280.220300
-73.249806 -70.439259 1279.904021
-73.049085 -71.136422 1279.590052
-72.839805 -71.841674 1279.278121
-72.622186 -72.554893 1278.967953
-72.396448 -73.275956 1278.659274
-72.162812 -74.004739 1278.351810
-71.921497 -74.741121 1278.045287
-71.672723 -75.484978 1277.739431
-71.416710 -76.236186 1277.433968
-71.153680 -76.994625 1277.128623
-70.883850 -77.760170 1276.823123
-70.607442 -78.532699 1276.517193
-70.324675 -79.312088 1276.210560
-70.035770 -80.098216 1275.902948
-69.740946 -80.890958 1275.594085
-69.440424 -81.690193 1275.283696
-69.134423 -82.495797 1274.971507
-68.823164 -83.307648 1274.657244
-68.506867 -84.125622 1274.340633
-68.185751 -84.949597 1274.021399
-67.860037 -85.779450 1273.699269
-67.529944 -86.615059 1273.373969
-67.195693 -87.456299 1273.045224
-66.857504 -88.303049 1272.712760
-66.515596 -89.155185 1272.376304
-66.170190 -90.012584 1272.035580
-65.821506 -90.875125 1271.690316
-65.469764 -91.742683 1271.340237
-65.115184 -92.615137 1270.985068
-64.757985 -93.492362 1270.624537
-64.398389 -94.374237 1270.258368
-64.036614 -95.260638 1269.886287
-63.672881 -96.151443 1269.508021
-63.307410 -97.046528 1269.123296
-62.940421 -97.945772 1268.731837
-62.572134 -98.849050 1268.333370
-62.202769 -99.756240 1267.927621
-61.832545 -100.667220 1267.514316
-61.461684 -101.581865 1267.093181
-61.090405 -102.500055 1266.663942
-60.718929 -103.421665 1266.226325
-60.347474 -104.346573 1265.780055
-59.976261 -105.274655 1265.324859
-59.605511 -106.205790 1264.860463
-59.235442 -107.139854 1264.386591
-58.866276 -108.076724 1263.902971
-58.498232 -109.016278 1263.409329
-58.131530 -109.958393 1262.905389
-57.766391 -110.902945 1262.390879
-57.403034 -111.849811 1261.865523
-57.041679 -112.798870 1261.329048
-56.682546 -113.749998 1260.781180
-56.325856 -114.703073 1260.221644
-55.971828 -115.657970 1259.650168
-55.620683 -116.614569 1259.066475
-55.272640 -117.572745 1258.470293
-54.927920 -118.532375 1257.861347
-54.586742 -119.493338 1257.239364
-54.249326 -120.455510 1256.604068
-53.915893 -121.418768 1255.955186
-53.586662 -122.382989 1255.292445
-53.261854 -123.348051 1254.615569
-52.941689 -124.313830 1253.924285
-52.626386 -125.280205 1253.218318
-52.316166 -126.247051 1252.497395
-52.011249 -127.214246 1251.761242
-51.711854 -128.181667 1251.009583
-51.418202 -129.149192 1250.242147
-51.130512 -130.116697 1249.458657
-50.849005 -131.084060 1248.658840
-50.573901 -132.051157 1247.842422
-50.305460 -133.017721 1247.009256
