-13.1309  262.569  753.378
-13.3092  263.144  753.403
-13.4876  263.72  753.428
-13.6659  264.296  753.453
-13.8442  264.872  753.477
-14.0225  265.448  753.502
-14.2009  266.023  753.527
-14.3792  266.599  753.552
-14.7001  267.458  753.581
-15.0209  268.318  753.61
-15.0452  268.368  753.611
-15.562  269.06  753.598
-16.0787  269.752  753.584
-16.5954  270.443  753.57
-17.1121  271.135  753.556
-17.6288  271.827  753.543
-18.1456  272.518  753.529
-18.6623  273.21  753.515
-19.179  273.902  753.501
-19.5929  274.312  753.478
-20.0067  274.723  753.454
-20.4206  275.133  753.43
-20.8344  275.544  753.407
-21.3429  276.044  753.378
-21.8513  276.545  753.348
-22.3598  277.045  753.319
-22.8682  277.545  753.289
-23.3767  278.046  753.26
-23.8851  278.546  753.231
-24.3936  279.047  753.201
-24.902  279.547  753.172
-25.3512  279.959  753.143
-25.8005  280.371  753.115
-26.2497  280.783  753.086
-26.699  281.194  753.057
-27.13  281.545  753.026
-27.5609  281.895  752.995
-27.9919  282.245  752.963
-28.4229  282.595  752.932
-28.8538  282.945  752.901
-29.2848  283.296  752.869
-29.7158  283.646  752.838
-30.1468  283.996  752.806
-30.569  284.286  752.771
-30.9913  284.576  752.735
-31.4136  284.865  752.7
-31.8359  285.155  752.664
-32.2582  285.445  752.629
-32.6805  285.735  752.594
-33.1028  286.024  752.558
-33.525  286.314  752.523
-34.1495  286.341  752.435
-34.7739  286.369  752.347
-35.3983  286.396  752.26
-36.0227  286.423  752.172
-36.6471  286.451  752.084
-37.2716  286.478  751.997
-37.896  286.505  751.909
-38.5204  286.533  751.821
-39.4552  286.509  751.684
-40.39  286.486  751.547
-41.3248  286.463  751.41
-42.2596  286.439  751.274
-43.0727  286.398  751.153
-43.7345  286.088  751.03
-44.3964  285.779  750.907
-45.0582  285.469  750.785
-45.72  285.16  750.662
-46.3818  284.85  750.539
-47.0437  284.541  750.417
-47.7055  284.231  750.294
-48.3673  283.922  750.171
-48.9611  283.535  750.052
-49.5219  282.915  749.916
-50.0826  282.295  749.781
-50.6434  281.675  749.645
-51.2042  281.055  749.51
-51.2145  281.042  749.507
-51.7505  280.314  749.366
-52.2866  279.585  749.225
-52.8226  278.857  749.083
-53.3587  278.129  748.942
-53.8947  277.4  748.801
-54.4308  276.672  748.659
-54.9668  275.944  748.518
-55.5029  275.216  748.377
-55.8831  274.461  748.255
-56.2633  273.707  748.134
-56.4525  273.116  748.055
-56.6418  272.524  747.976
-56.831  271.933  747.897
-57.0202  271.342  747.817
-57.2095  270.751  747.738
-57.3987  270.159  747.659
-57.588  269.568  747.579
-57.7772  268.977  747.5
-57.9681  268.048  747.391
-58.159  267.12  747.282
-58.3498  266.191  747.173
-58.5407  265.262  747.064
-58.6727  264.502  746.978
-58.8047  263.742  746.892
-58.9367  262.982  746.806
-59.0686  262.222  746.72
-59.0631  261.43  746.651
-59.0575  260.638  746.583
-58.9659  260.173  746.555
-58.7958  259.645  746.533
-58.6257  259.117  746.511
-58.4556  258.589  746.49
-58.2855  258.061  746.468
-58.1154  257.533  746.446
-57.9453  257.006  746.424
-57.7751  256.478  746.402
-57.605  255.95  746.38
-57.4349  255.422  746.358
-57.2648  254.894  746.336
-57.0947  254.366  746.315
-56.9246  253.838  746.293
-56.7545  253.31  746.271
-56.5844  252.782  746.249
-56.4143  252.254  746.227
-56.2442  251.726  746.205
-55.815  251.215  746.222
-55.3859  250.705  746.239
-54.9567  250.194  746.256
-54.5275  249.684  746.273
-54.0984  249.173  746.29
-53.6692  248.662  746.307
-53.2401  248.152  746.325
-52.8109  247.641  746.342
-52.341  247.169  746.368
-51.8711  246.697  746.394
-51.4011  246.225  746.42
-50.9312  245.753  746.447
-50.4613  245.281  746.473
-49.9914  244.809  746.499
-49.5215  244.337  746.526
-49.0515  243.865  746.552
-48.3387  243.283  746.604
-47.626  242.701  746.655
-46.9132  242.119  746.707
-46.2004  241.537  746.759
-45.5865  241.18  746.816
-44.9727  240.822  746.873
-44.3589  240.465  746.93
-43.7451  240.107  746.987
-43.1312  239.75  747.044
-42.5174  239.392  747.102
-41.9036  239.035  747.159
-41.2898  238.677  747.216
-40.6219  238.302  747.279
-39.954  237.927  747.343
-39.2861  237.552  747.406
-38.6182  237.177  747.469
-38.0576  237.249  747.557
-37.497  237.321  747.644
-36.9364  237.393  747.731
-36.3758  237.465  747.818
-35.8152  237.537  747.905
-35.2547  237.609  747.992
-34.6941  237.681  748.08
-34.1335  237.752  748.167
-33.5729  237.824  748.254
-33.0123  237.896  748.341
-32.4517  237.968  748.428
-31.8911  238.04  748.516
-31.3305  238.112  748.603
-30.7699  238.184  748.69
-30.2093  238.256  748.777
-29.6487  238.328  748.864
-29.0881  238.4  748.952
-28.5275  238.471  749.039
-27.9669  238.543  749.126
-27.4063  238.615  749.213
-26.8458  238.687  749.3
-26.2852  238.759  749.388
-25.7246  238.831  749.475
-25.164  238.903  749.562
-24.6034  238.975  749.649
-24.0428  239.047  749.736
-23.4822  239.119  749.824
-22.9216  239.19  749.911
-22.361  239.262  749.998
-21.8004  239.334  750.085
-21.2398  239.406  750.172
-20.6792  239.478  750.26
-19.9229  239.738  750.391
-19.5471  240.063  750.474
-19.1713  240.389  750.557
-18.7954  240.714  750.64
-18.4196  241.039  750.723
-18.0438  241.364  750.805
-17.668  241.689  750.888
-17.2922  242.014  750.971
-16.9163  242.339  751.054
-16.5405  242.664  751.137
-16.1647  242.989  751.219
-15.7889  243.314  751.302
-15.4131  243.639  751.385
-15.0372  243.964  751.468
-14.6614  244.289  751.55
-14.2856  244.614  751.633
-13.9098  244.939  751.716
-13.6073  245.76  751.832
-13.3049  246.581  751.948
-13.0025  247.402  752.063
-12.7  248.223  752.179
-12.4336  249.134  752.298
-12.1672  250.045  752.416
-12.0199  250.585  752.485
-11.8725  251.126  752.554
-11.7251  251.666  752.622
-11.5778  252.206  752.691
-11.5314  252.737  752.745
-11.5381  253.236  752.787
-11.5447  253.734  752.83
-11.5514  254.233  752.873
-11.5581  254.732  752.916
-11.5648  255.231  752.959
-11.5715  255.73  753.002
-11.5782  256.228  753.045
-11.5849  256.727  753.087
-11.7272  257.323  753.119
-11.8696  257.92  753.151
-12.0119  258.516  753.183
-12.1542  259.112  753.215
-12.3538  259.832  753.249
s
-5.95162  252.024  723.991
-6.10054  252.818  724.023
-6.24946  253.612  724.055
-6.39839  254.406  724.087
-6.54731  255.201  724.119
-6.69623  255.995  724.151
-6.84515  256.789  724.183
-6.99407  257.583  724.215
-7.12265  258.094  724.233
-7.25124  258.604  724.25
-7.37982  259.115  724.267
-7.50841  259.626  724.285
-7.63699  260.136  724.302
-7.76558  260.647  724.32
-7.89416  261.157  724.337
-8.02275  261.668  724.355
-8.35166  262.228  724.356
-8.80292  262.97  724.356
-9.25419  263.713  724.356
-9.70545  264.455  724.356
-10.1567  265.198  724.356
-10.608  265.941  724.356
-11.0592  266.683  724.356
-11.5105  267.426  724.357
-11.9618  268.168  724.357
-12.3199  268.724  724.355
-12.9043  269.421  724.339
-13.4886  270.118  724.324
-14.0729  270.815  724.309
-14.6572  271.512  724.294
-15.3226  272.25  724.273
-15.9879  272.988  724.252
-16.6533  273.726  724.232
-17.3186  274.464  724.211
-17.7499  274.867  724.193
-18.1813  275.27  724.176
-18.6126  275.673  724.158
-19.044  276.077  724.14
-19.7732  276.524  724.097
-20.5024  276.972  724.053
-21.2316  277.419  724.009
-21.9609  277.867  723.966
-22.7625  278.326  723.916
-23.5642  278.786  723.866
-24.3659  279.245  723.816
-25.1676  279.705  723.766
-25.8332  279.968  723.718
-26.4989  280.23  723.67
-27.1645  280.493  723.621
-27.8302  280.756  723.573
-28.4958  281.019  723.525
-29.1615  281.282  723.476
-29.8272  281.545  723.428
-30.4928  281.807  723.38
-31.2289  282.063  723.324
-31.965  282.318  723.269
-32.7012  282.574  723.213
-33.4373  282.829  723.158
-34.3609  282.979  723.078
-35.2846  283.129  722.999
-36.2082  283.279  722.919
-37.1318  283.429  722.84
-37.7754  283.523  722.784
-38.419  283.616  722.728
-39.0626  283.71  722.671
-39.7062  283.803  722.615
-40.4852  283.772  722.539
-41.2641  283.741  722.463
-42.0013  283.477  722.377
-42.7385  283.214  722.291
-43.4757  282.951  722.205
-44.2129  282.688  722.12
-45.1198  282.313  722.011
-46.0267  281.938  721.903
-46.9335  281.564  721.794
-47.8404  281.189  721.686
-48.4777  280.728  721.598
-49.115  280.268  721.51
-49.7523  279.807  721.423
-50.3896  279.347  721.335
-51.0269  278.887  721.247
-51.6642  278.426  721.159
-52.3015  277.966  721.072
-52.9388  277.505  720.984
-53.3882  277.164  720.921
-53.8376  276.822  720.858
-54.4512  276.224  720.765
-55.0649  275.626  720.671
-55.6786  275.028  720.578
-56.2923  274.43  720.484
-56.8656  273.801  720.393
-57.4389  273.172  720.302
-58.0123  272.544  720.21
-58.5856  271.915  720.119
-58.9323  271.514  720.062
-59.2791  271.113  720.006
-59.6258  270.712  719.949
-59.9725  270.311  719.893
-60.3591  269.61  719.815
-60.7457  268.909  719.737
-60.9178  268.358  719.689
-61.0899  267.806  719.64
-61.262  267.255  719.592
-61.4342  266.704  719.543
-61.6063  266.152  719.495
-61.7784  265.601  719.446
-61.9505  265.05  719.397
-62.1226  264.499  719.349
-62.0702  263.699  719.307
-62.0178  262.9  719.266
-61.9432  261.997  719.22
-61.8687  261.095  719.175
-61.7942  260.192  719.13
-61.7196  259.289  719.084
-61.6451  258.386  719.039
-61.5705  257.483  718.993
-61.496  256.58  718.948
-61.4215  255.677  718.902
-61.0937  254.814  718.883
-60.766  253.952  718.865
-60.4485  253.471  718.867
-60.131  252.99  718.869
-59.8135  252.509  718.872
-59.4961  252.028  718.874
-59.1786  251.547  718.876
-58.8611  251.065  718.879
-58.5436  250.584  718.881
-58.2262  250.103  718.883
-57.8163  249.498  718.887
-57.4065  248.893  718.891
-56.9966  248.287  718.895
-56.5868  247.682  718.899
-56.1769  247.077  718.903
-55.7671  246.471  718.907
-55.3573  245.866  718.911
-54.9474  245.26  718.915
-54.5376  244.655  718.918
-54.1277  244.05  718.922
-53.7179  243.444  718.926
-53.308  242.839  718.93
-52.8982  242.233  718.934
-52.4883  241.628  718.938
-52.0785  241.023  718.942
-51.6687  240.417  718.946
-51.2588  239.812  718.95
-50.849  239.206  718.954
-50.4391  238.601  718.958
-50.0293  237.996  718.962
-49.6194  237.39  718.966
-49.2096  236.785  718.969
-48.7998  236.18  718.973
-48.3899  235.574  718.977
-47.9801  234.969  718.981
-47.5702  234.363  718.985
-47.1604  233.758  718.989
-46.7505  233.153  718.993
-46.3407  232.547  718.997
-45.9309  231.942  719.001
-45.521  231.337  719.005
-45.1112  230.731  719.009
-44.7665  230.234  719.013
-44.4218  229.737  719.017
-44.0771  229.24  719.021
-43.7323  228.743  719.025
-43.3143  228.227  719.035
-42.8963  227.711  719.044
-42.4783  227.194  719.054
-42.0603  226.678  719.064
-41.4587  226.117  719.089
-40.8572  225.556  719.114
-40.2557  224.995  719.139
-39.6542  224.434  719.164
-39.1373  224.026  719.189
-38.6204  223.618  719.215
-38.1034  223.21  719.24
-37.5865  222.801  719.266
-37.0695  222.393  719.292
-36.5526  221.985  719.317
-36.0357  221.577  719.343
-35.5187  221.169  719.369
-35.0018  220.761  719.394
-34.4849  220.353  719.42
-33.9679  219.945  719.446
-33.451  219.537  719.471
-32.934  219.129  719.497
-32.4171  218.721  719.523
-31.9002  218.313  719.548
-31.3832  217.904  719.574
-30.4899  218.246  719.679
-29.5966  218.588  719.784
-28.7033  218.929  719.89
-27.81  219.271  719.995
-26.9167  219.613  720.1
-26.0234  219.954  720.205
-25.1301  220.296  720.311
-24.2368  220.638  720.416
-23.3957  221.127  720.525
-22.5546  221.616  720.634
-21.7135  222.105  720.743
-20.8724  222.594  720.852
-20.0313  223.084  720.96
-19.1902  223.573  721.069
-18.349  224.062  721.178
-17.5079  224.551  721.287
-16.6668  225.04  721.396
-15.8257  225.529  721.505
-14.9846  226.019  721.614
-14.1435  226.508  721.722
-13.3024  226.997  721.831
-12.4612  227.486  721.94
-11.6201  227.975  722.049
-10.779  228.465  722.158
-10.579  228.958  722.206
-10.379  229.451  722.254
-10.179  229.944  722.302
-9.97894  230.438  722.349
-9.77892  230.931  722.397
-9.57891  231.424  722.445
-9.37889  231.918  722.493
-9.17887  232.411  722.541
-8.97885  232.904  722.589
-8.77884  233.398  722.636
-8.57882  233.891  722.684
-8.3788  234.384  722.732
-8.17878  234.877  722.78
-7.97877  235.371  722.828
-7.77875  235.864  722.875
-7.57873  236.357  722.923
-7.44507  236.951  722.971
-7.3114  237.545  723.018
-7.17774  238.139  723.065
-7.04407  238.733  723.113
-6.91041  239.327  723.16
-6.77674  239.921  723.208
-6.64308  240.515  723.255
-6.50941  241.109  723.302
-6.44443  241.614  723.338
-6.37945  242.12  723.373
-6.31447  242.625  723.409
-6.2495  243.13  723.445
-6.18452  243.635  723.48
-6.11954  244.14  723.516
-6.05456  244.645  723.552
-5.98958  245.151  723.587
-5.96622  245.911  723.634
-5.94286  246.67  723.68
-5.9195  247.43  723.727
-5.89614  248.19  723.773
-5.87278  248.95  723.82
-5.84942  249.71  723.866
-5.82606  250.47  723.913
-5.8027  251.23  723.959
s
2.37259  247.291  694.955
2.14969  248.125  694.969
1.92679  248.958  694.982
1.71307  249.67  694.993
1.49935  250.382  695.003
1.21058  251.112  695.01
0.921796  251.842  695.018
0.633017  252.572  695.025
0.344237  253.302  695.033
0.0478345  253.884  695.035
-0.248568  254.466  695.038
-0.544971  255.048  695.041
-0.841374  255.63  695.044
-1.13778  256.211  695.046
-1.43418  256.793  695.049
-1.73058  257.375  695.052
-2.02699  257.957  695.055
-2.36693  258.516  695.055
-2.70687  259.074  695.055
-3.04682  259.633  695.055
-3.38676  260.191  695.055
-3.72671  260.749  695.055
-4.06665  261.308  695.055
-4.4066  261.866  695.055
-4.74654  262.425  695.055
-5.09616  262.968  695.054
-5.44578  263.511  695.053
-5.92211  264.087  695.047
-6.39844  264.664  695.041
-6.87477  265.24  695.035
-7.3511  265.817  695.029
-7.85357  266.387  695.022
-8.23691  266.772  695.015
-8.62025  267.158  695.008
-9.00359  267.543  695.001
-9.38693  267.929  694.994
-9.77028  268.314  694.987
-10.1536  268.7  694.98
-10.537  269.085  694.973
-10.9203  269.47  694.966
-11.6608  270.117  694.949
-12.4014  270.763  694.933
-13.1419  271.41  694.916
-13.8825  272.056  694.9
-14.4434  272.503  694.886
-15.0043  272.95  694.872
-15.5653  273.396  694.859
-16.1262  273.843  694.845
-16.8994  274.406  694.824
-17.6726  274.969  694.804
-18.4458  275.532  694.784
-19.2189  276.095  694.763
-19.6757  276.33  694.748
-20.1324  276.564  694.733
-20.5891  276.799  694.718
-21.0458  277.033  694.703
-21.5025  277.267  694.689
-21.9592  277.502  694.674
-22.4159  277.736  694.659
-22.8726  277.971  694.644
-23.6906  278.288  694.614
-24.5086  278.605  694.584
-25.3266  278.923  694.555
-26.1446  279.24  694.525
-26.9626  279.557  694.495
-27.7806  279.874  694.466
-28.5986  280.192  694.436
-29.4166  280.509  694.406
-30.2346  280.826  694.377
-31.0526  281.143  694.347
-31.8706  281.461  694.318
-32.6886  281.778  694.288
-33.5066  282.095  694.258
-34.3246  282.412  694.229
-35.1426  282.73  694.199
-35.9606  283.047  694.169
-36.5495  283.197  694.146
-37.1385  283.348  694.122
-37.7439  283.486  694.097
-38.3492  283.625  694.072
-38.9545  283.763  694.048
-39.5599  283.902  694.023
-40.3531  283.872  693.984
-41.1464  283.842  693.946
-41.9397  283.813  693.907
-42.733  283.783  693.869
-43.2981  283.657  693.838
-43.8632  283.532  693.808
-44.4283  283.406  693.777
-44.9934  283.281  693.747
-45.5585  283.155  693.716
-46.1236  283.029  693.686
-46.6887  282.904  693.656
-47.2538  282.778  693.625
-47.8095  282.494  693.59
-48.3651  282.21  693.556
-48.9208  281.926  693.521
-49.4764  281.642  693.487
-49.9536  281.389  693.457
-50.4307  281.137  693.427
-50.9078  280.885  693.397
-51.3849  280.632  693.367
-51.8621  280.38  693.337
-52.3392  280.128  693.307
-52.8163  279.875  693.277
-53.2934  279.623  693.247
-53.931  279.183  693.204
-54.5685  278.743  693.161
-55.206  278.303  693.118
-55.8435  277.863  693.075
-56.4811  277.423  693.032
-57.1186  276.983  692.989
-57.7561  276.542  692.946
-58.3937  276.102  692.903
-58.5992  275.388  692.872
-58.8047  274.674  692.842
-59.0102  273.96  692.812
-59.2157  273.246  692.781
-59.4212  272.532  692.751
-59.6267  271.818  692.72
-59.8323  271.104  692.69
-60.0378  270.39  692.66
-60.1259  269.811  692.639
-60.214  269.233  692.618
-60.3021  268.654  692.597
-60.3902  268.076  692.576
-60.4784  267.497  692.555
-60.5665  266.919  692.534
-60.6546  266.341  692.513
-60.7427  265.762  692.492
-60.7422  265.759  692.492
-60.3271  264.878  692.486
-59.912  263.997  692.481
-59.4969  263.116  692.475
-59.0818  262.235  692.469
-58.7163  261.493  692.465
-58.3509  260.752  692.461
-57.9854  260.01  692.457
-57.62  259.268  692.453
-57.2545  258.526  692.449
-56.8891  257.785  692.444
-56.5236  257.043  692.44
-56.1581  256.301  692.436
-55.7927  255.56  692.432
-55.4272  254.818  692.428
-55.0618  254.076  692.424
-54.6963  253.334  692.42
-54.3309  252.593  692.416
-53.9654  251.851  692.412
-53.6  251.109  692.407
-53.2345  250.367  692.403
-52.869  249.626  692.399
-52.5036  248.884  692.395
-52.1381  248.142  692.391
-51.7727  247.401  692.387
-51.4072  246.659  692.383
-51.0418  245.917  692.379
-50.6763  245.175  692.375
-50.3108  244.434  692.371
-49.9454  243.692  692.366
-49.5799  242.95  692.362
-49.2145  242.208  692.358
-48.849  241.467  692.354
-48.4836  240.725  692.35
-48.1181  239.983  692.346
-47.7526  239.242  692.342
-47.3872  238.5  692.338
-47.0217  237.758  692.334
-46.6563  237.016  692.329
-46.2908  236.275  692.325
-45.9254  235.533  692.321
-45.5599  234.791  692.317
-45.1945  234.049  692.313
-44.829  233.308  692.309
-44.4635  232.566  692.305
-44.0981  231.824  692.301
-43.7326  231.083  692.297
-43.3672  230.341  692.293
-43.0017  229.599  692.288
-42.6363  228.857  692.284
-42.2708  228.116  692.28
-41.9053  227.374  692.276
-41.5399  226.632  692.272
-41.1744  225.89  692.268
-40.809  225.149  692.264
-40.4435  224.407  692.26
-40.0781  223.665  692.256
-39.7126  222.924  692.252
-39.3472  222.182  692.247
-38.9817  221.44  692.243
-38.6162  220.698  692.239
-38.2508  219.957  692.235
-37.8853  219.215  692.231
-37.5199  218.473  692.227
-37.1544  217.731  692.223
-36.789  216.99  692.219
-36.4235  216.248  692.215
-36.0581  215.506  692.21
-35.6926  214.765  692.206
-35.3308  214.409  692.213
-34.9691  214.054  692.22
-34.6073  213.698  692.227
-34.2456  213.343  692.234
-33.4746  212.752  692.253
-32.7037  212.162  692.273
-31.9327  211.571  692.293
-31.1617  210.98  692.312
-30.7231  210.676  692.324
-30.2844  210.372  692.336
-29.8457  210.068  692.348
-29.407  209.764  692.36
-28.9683  209.46  692.372
-28.5296  209.156  692.384
-28.091  208.852  692.396
-27.6523  208.548  692.408
-27.099  208.187  692.424
-26.5458  207.826  692.44
-25.9926  207.465  692.456
-25.4393  207.104  692.472
-24.8861  206.743  692.487
-24.3329  206.382  692.503
-23.7797  206.021  692.519
-23.2264  205.66  692.535
-22.5579  205.484  692.562
-22.0572  205.583  692.588
-21.5564  205.682  692.615
-21.0557  205.781  692.642
-20.5549  205.88  692.668
-20.0542  205.979  692.695
-19.5534  206.078  692.721
-19.0527  206.177  692.748
-18.5519  206.276  692.775
-17.6732  206.487  692.823
-16.7944  206.698  692.87
-15.9157  206.909  692.918
-15.0369  207.12  692.966
-14.1582  207.33  693.014
-13.2795  207.541  693.062
-12.4007  207.752  693.11
-11.522  207.963  693.157
-10.717  208.31  693.206
-9.91194  208.658  693.254
-9.10692  209.006  693.302
-8.3019  209.354  693.351
-7.49689  209.702  693.399
-6.69187  210.049  693.447
-5.88685  210.397  693.495
-5.08184  210.745  693.544
-4.87909  211.371  693.572
-4.67634  211.998  693.599
-4.47359  212.624  693.627
-4.27084  213.251  693.655
-4.06809  213.877  693.682
-3.86534  214.504  693.71
-3.66259  215.13  693.738
-3.45984  215.756  693.766
-3.25709  216.383  693.794
-3.05435  217.009  693.821
-2.8516  217.636  693.849
-2.64885  218.262  693.877
-2.4461  218.889  693.905
-2.24335  219.515  693.932
-2.0406  220.142  693.96
-1.83785  220.768  693.988
-1.6351  221.395  694.016
-1.43235  222.021  694.043
-1.2296  222.648  694.071
-1.02685  223.274  694.099
-0.824106  223.901  694.127
-0.621357  224.527  694.154
-0.418608  225.153  694.182
-0.215859  225.78  694.21
-0.0131095  226.406  694.238
0.18964  227.033  694.265
0.392389  227.659  694.293
0.595138  228.286  694.321
0.797887  228.912  694.349
1.00064  229.539  694.376
1.20338  230.165  694.404
1.40613  230.792  694.432
1.55779  231.377  694.456
1.70945  231.962  694.48
1.86111  232.547  694.504
2.01277  233.132  694.528
2.16443  233.717  694.552
2.31609  234.302  694.577
2.46775  234.887  694.601
2.61941  235.472  694.625
2.7649  236.458  694.66
2.91038  237.444  694.696
2.96977  238.36  694.725
3.02915  239.275  694.754
3.08854  240.19  694.784
3.14792  241.105  694.813
3.10673  241.67  694.827
3.06554  242.235  694.842
3.02435  242.799  694.856
2.98316  243.364  694.87
2.94197  243.929  694.885
2.90077  244.494  694.899
2.85958  245.058  694.914
2.81839  245.623  694.928
2.59549  246.457  694.942
s
9.37401  239.628  665.6
9.44917  240.51  665.6
9.52433  241.392  665.6
9.59949  242.275  665.6
9.47077  242.873  665.6
9.34205  243.471  665.6
9.21332  244.069  665.6
9.0846  244.667  665.6
8.95588  245.265  665.6
8.82715  245.863  665.6
8.69843  246.461  665.6
8.56971  247.059  665.6
8.07905  247.791  665.6
7.5884  248.524  665.6
7.09775  249.256  665.6
6.6071  249.989  665.6
6.25684  250.504  665.6
5.90658  251.019  665.6
5.55631  251.535  665.6
5.20605  252.05  665.6
4.85579  252.565  665.6
4.50553  253.08  665.6
4.15527  253.596  665.6
3.805  254.111  665.6
3.45474  254.626  665.6
3.10448  255.141  665.6
2.75422  255.656  665.6
2.40396  256.172  665.6
2.05369  256.687  665.6
1.70343  257.202  665.6
1.35317  257.717  665.6
1.00291  258.233  665.6
0.652648  258.748  665.6
0.302386  259.263  665.6
-0.0478762  259.778  665.6
-0.398138  260.293  665.6
-0.7484  260.809  665.6
-1.09866  261.324  665.6
-1.44892  261.839  665.6
-1.79919  262.354  665.6
-2.14945  262.87  665.6
-2.49971  263.385  665.6
-2.84997  263.9  665.6
-3.20023  264.415  665.6
-3.5505  264.93  665.6
-3.90076  265.446  665.6
-4.25102  265.961  665.6
-4.60128  266.476  665.6
-5.01305  266.874  665.6
-5.42482  267.272  665.6
-5.83659  267.67  665.6
-6.24836  268.068  665.6
-6.88807  268.491  665.6
-7.52779  268.915  665.6
-8.16751  269.338  665.6
-8.80722  269.761  665.6
-9.63824  270.213  665.6
-10.4693  270.665  665.6
-11.3003  271.117  665.6
-12.1313  271.57  665.6
-12.9623  272.022  665.6
-13.7933  272.474  665.6
-14.6244  272.926  665.6
-15.4554  273.378  665.6
-16.2864  273.83  665.6
-17.1174  274.283  665.6
-17.9484  274.735  665.6
-18.7794  275.187  665.6
-19.6105  275.639  665.6
-20.4415  276.091  665.6
-21.2725  276.543  665.6
-22.1035  276.996  665.6
-22.9943  277.377  665.6
-23.8851  277.758  665.6
-24.7759  278.139  665.6
-25.6667  278.52  665.6
-26.5575  278.901  665.6
-27.4482  279.281  665.6
-28.339  279.662  665.6
-29.2298  280.043  665.6
-30.1206  280.424  665.6
-31.0114  280.805  665.6
-31.9022  281.186  665.6
-32.793  281.567  665.6
-33.6838  281.948  665.6
-34.5745  282.329  665.6
-35.4653  282.71  665.6
-36.3561  283.091  665.6
-36.8746  283.227  665.6
-37.393  283.362  665.6
-37.9115  283.497  665.6
-38.4299  283.632  665.6
-38.9484  283.768  665.6
-39.4669  283.903  665.6
-39.9853  284.038  665.6
-40.5038  284.173  665.6
-41.3733  284.089  665.6
-42.2429  284.005  665.6
-42.7437  283.906  665.6
-43.2445  283.808  665.6
-43.7453  283.71  665.6
-44.2461  283.611  665.6
-44.7709  283.411  665.6
-45.2957  283.21  665.6
-45.8205  283.01  665.6
-46.3453  282.81  665.6
-46.8701  282.609  665.6
-47.3949  282.409  665.6
-47.9197  282.208  665.6
-48.4445  282.008  665.6
-48.9693  281.808  665.6
-49.4941  281.607  665.6
-50.0189  281.407  665.6
-50.5437  281.207  665.6
-51.0685  281.006  665.6
-51.5933  280.806  665.6
-52.1181  280.606  665.6
-52.6429  280.405  665.6
-53.2822  279.749  665.6
-53.9215  279.093  665.6
-54.5608  278.437  665.6
-55.2  277.781  665.6
-55.4523  277.212  665.6
-55.6702  276.625  665.6
-55.888  276.039  665.6
-56.1058  275.452  665.6
-56.3237  274.866  665.6
-56.5258  274.121  665.6
-56.7279  273.376  665.6
-56.9301  272.631  665.6
-57.1322  271.887  665.6
-57.1365  271.337  665.6
-57.1407  270.788  665.6
-57.145  270.238  665.6
-57.1492  269.689  665.6
-57.145  269.064  665.6
-56.9206  268.509  665.6
-56.6962  267.954  665.6
-56.4717  267.399  665.6
-56.2473  266.844  665.6
-56.0229  266.289  665.6
-55.7985  265.734  665.6
-55.5741  265.179  665.6
-55.3497  264.624  665.6
-55.1253  264.069  665.6
-54.9009  263.514  665.6
-54.6765  262.959  665.6
-54.4521  262.404  665.6
-54.2277  261.849  665.6
-54.0033  261.294  665.6
-53.7789  260.739  665.6
-53.5544  260.184  665.6
-53.33  259.629  665.6
-53.1056  259.074  665.6
-52.8812  258.519  665.6
-52.6568  257.964  665.6
-52.4324  257.409  665.6
-52.208  256.854  665.6
-51.9836  256.299  665.6
-51.7592  255.744  665.6
-51.5348  255.189  665.6
-51.3104  254.634  665.6
-51.086  254.079  665.6
-50.8615  253.524  665.6
-50.6371  252.969  665.6
-50.4127  252.414  665.6
-50.1883  251.859  665.6
-49.9639  251.304  665.6
-49.7395  250.749  665.6
-49.5151  250.194  665.6
-49.2907  249.639  665.6
-49.0663  249.084  665.6
-48.8419  248.529  665.6
-48.6175  247.974  665.6
-48.3931  247.419  665.6
-48.1687  246.865  665.6
-47.9442  246.31  665.6
-47.7198  245.755  665.6
-47.4954  245.2  665.6
-47.271  244.645  665.6
-47.0466  244.09  665.6
-46.8222  243.535  665.6
-46.5978  242.98  665.6
-46.3734  242.425  665.6
-46.149  241.87  665.6
-45.9246  241.315  665.6
-45.7002  240.76  665.6
-45.4758  240.205  665.6
-45.2514  239.65  665.6
-45.0269  239.095  665.6
-44.8025  238.54  665.6
-44.5781  237.985  665.6
-44.3537  237.43  665.6
-44.1293  236.875  665.6
-43.9049  236.32  665.6
-43.6805  235.765  665.6
-43.4561  235.21  665.6
-43.2317  234.655  665.6
-43.0073  234.1  665.6
-42.7829  233.545  665.6
-42.5585  232.99  665.6
-42.3341  232.435  665.6
-42.1096  231.88  665.6
-41.8852  231.325  665.6
-41.6608  230.77  665.6
-41.4364  230.215  665.6
-41.212  229.66  665.6
-40.9876  229.105  665.6
-40.7632  228.55  665.6
-40.5388  227.995  665.6
-40.3144  227.44  665.6
-40.09  226.885  665.6
-39.8656  226.33  665.6
-39.6412  225.775  665.6
-39.4167  225.22  665.6
-39.1923  224.665  665.6
-38.9679  224.11  665.6
-38.7435  223.555  665.6
-38.5191  223  665.6
-38.2947  222.445  665.6
-38.0703  221.89  665.6
-37.8459  221.335  665.6
-37.6215  220.78  665.6
-37.3971  220.225  665.6
-37.1727  219.67  665.6
-36.9483  219.115  665.6
-36.7239  218.56  665.6
-36.4994  218.005  665.6
-36.275  217.45  665.6
-36.0506  216.895  665.6
-35.8262  216.34  665.6
-35.6018  215.785  665.6
-35.3774  215.23  665.6
-35.153  214.675  665.6
-34.9286  214.121  665.6
-34.7042  213.566  665.6
-34.4798  213.011  665.6
-34.2554  212.456  665.6
-34.031  211.901  665.6
-33.8066  211.346  665.6
-33.5821  210.791  665.6
-33.3577  210.236  665.6
-33.1333  209.681  665.6
-32.9089  209.126  665.6
-32.6845  208.571  665.6
-32.4601  208.016  665.6
-32.2357  207.461  665.6
-32.0113  206.906  665.6
-31.7869  206.351  665.6
-31.5625  205.796  665.6
-31.3381  205.241  665.6
-31.1137  204.686  665.6
-30.8893  204.131  665.6
-30.6648  203.576  665.6
-30.4404  203.021  665.6
-30.216  202.466  665.6
-29.9916  201.911  665.6
-29.7672  201.356  665.6
-29.5428  200.801  665.6
-29.3184  200.246  665.6
-29.094  199.691  665.6
-28.8696  199.136  665.6
-28.6452  198.581  665.6
-28.4208  198.026  665.6
-27.9934  197.727  665.6
-27.5661  197.428  665.6
-27.1387  197.129  665.6
-26.7114  196.83  665.6
-26.2022  196.596  665.6
-25.6931  196.361  665.6
-25.184  196.127  665.6
-24.6749  195.892  665.6
-24.1658  195.658  665.6
-23.6567  195.423  665.6
-23.1476  195.189  665.6
-22.6385  194.954  665.6
-22.1293  194.72  665.6
-21.6202  194.485  665.6
-21.1111  194.251  665.6
-20.602  194.016  665.6
-20.0929  193.782  665.6
-19.5838  193.547  665.6
-19.0747  193.313  665.6
-18.5655  193.079  665.6
-17.8006  193.442  665.6
-17.0356  193.805  665.6
-16.2706  194.169  665.6
-15.5056  194.532  665.6
-14.7406  194.895  665.6
-13.9757  195.259  665.6
-13.2107  195.622  665.6
-12.4457  195.985  665.6
-11.6807  196.349  665.6
-10.9157  196.712  665.6
-10.1507  197.075  665.6
-9.38576  197.439  665.6
-8.62078  197.802  665.6
-7.85579  198.165  665.6
-7.09081  198.529  665.6
-6.32583  198.892  665.6
-6.10478  199.359  665.6
-5.88374  199.826  665.6
-5.66938  200.305  665.6
-5.45502  200.785  665.6
-5.24065  201.265  665.6
-5.02629  201.744  665.6
-4.81193  202.224  665.6
-4.59757  202.703  665.6
-4.38321  203.183  665.6
-4.16884  203.663  665.6
-3.95448  204.142  665.6
-3.74012  204.622  665.6
-3.52576  205.102  665.6
-3.31139  205.581  665.6
-3.09703  206.061  665.6
-2.88267  206.54  665.6
-2.66831  207.02  665.6
-2.45394  207.5  665.6
-2.23958  207.979  665.6
-2.02522  208.459  665.6
-1.81086  208.939  665.6
-1.5965  209.418  665.6
-1.38213  209.898  665.6
-1.16777  210.377  665.6
-0.953409  210.857  665.6
-0.739046  211.337  665.6
-0.524684  211.816  665.6
-0.310322  212.296  665.6
-0.0959592  212.776  665.6
0.118403  213.255  665.6
0.332765  213.735  665.6
0.547128  214.215  665.6
0.76149  214.694  665.6
0.975852  215.174  665.6
1.19021  215.653  665.6
1.40458  216.133  665.6
1.61894  216.613  665.6
1.8333  217.092  665.6
2.04766  217.572  665.6
2.26203  218.052  665.6
2.47639  218.531  665.6
2.69075  219.011  665.6
2.90511  219.49  665.6
3.11948  219.97  665.6
3.33384  220.45  665.6
3.5482  220.929  665.6
3.76256  221.409  665.6
3.97693  221.889  665.6
4.19129  222.368  665.6
4.40565  222.848  665.6
4.62001  223.327  665.6
4.83437  223.807  665.6
5.04874  224.287  665.6
5.2631  224.766  665.6
5.47746  225.246  665.6
5.69182  225.726  665.6
5.90619  226.205  665.6
6.12055  226.685  665.6
6.33491  227.164  665.6
6.54927  227.644  665.6
6.76364  228.124  665.6
6.978  228.603  665.6
7.19236  229.083  665.6
7.40672  229.563  665.6
7.62109  230.042  665.6
7.83545  230.522  665.6
7.92691  231.036  665.6
8.01837  231.55  665.6
8.10983  232.064  665.6
8.2013  232.578  665.6
8.29276  233.092  665.6
8.38422  233.606  665.6
8.47568  234.12  665.6
8.56715  234.634  665.6
8.65861  235.148  665.6
8.75007  235.662  665.6
8.84153  236.176  665.6
8.93299  236.69  665.6
9.02446  237.204  665.6
9.11592  237.718  665.6
9.20738  238.232  665.6
9.29884  238.746  665.6
s
0.25563  248.438  638.87
-0.081555  249.143  638.87
-0.41874  249.848  638.87
-0.755925  250.553  638.87
-1.09311  251.258  638.87
-1.43029  251.963  638.87
-1.76748  252.669  638.87
-2.10466  253.374  638.87
-2.44185  254.079  638.87
-2.96403  254.68  638.87
-3.4862  255.282  638.87
-4.00838  255.883  638.87
-4.53056  256.484  638.87
-5.07711  256.863  638.87
-5.62366  257.242  638.87
-6.17021  257.621  638.87
-6.71675  257.999  638.87
-7.2633  258.378  638.87
-7.80985  258.757  638.87
-8.3564  259.136  638.87
-8.90295  259.515  638.87
-9.4495  259.894  638.87
-9.99605  260.273  638.87
-10.5426  260.651  638.87
-11.0891  261.03  638.87
-11.6357  261.409  638.87
-12.1822  261.788  638.87
-12.7288  262.167  638.87
-13.2753  262.546  638.87
-13.8219  262.924  638.87
-14.3684  263.303  638.87
-14.915  263.682  638.87
-15.4615  264.061  638.87
-16.0081  264.44  638.87
-16.5546  264.819  638.87
-17.1012  265.198  638.87
-17.6477  265.576  638.87
-18.1943  265.955  638.87
-18.7408  266.334  638.87
-19.2874  266.713  638.87
-19.8339  267.092  638.87
-20.3805  267.471  638.87
-20.927  267.85  638.87
-21.4736  268.228  638.87
-22.0201  268.607  638.87
-22.668  268.947  638.87
-23.3158  269.286  638.87
-23.9636  269.626  638.87
-24.6114  269.965  638.87
-25.2593  270.305  638.87
-25.9071  270.644  638.87
-26.5549  270.984  638.87
-27.2027  271.323  638.87
-27.8506  271.662  638.87
-28.4984  272.002  638.87
-29.1462  272.341  638.87
-29.794  272.681  638.87
-30.4419  273.02  638.87
-31.0897  273.36  638.87
-31.7375  273.699  638.87
-32.3853  274.039  638.87
-33.0332  274.378  638.87
-33.681  274.718  638.87
-34.3288  275.057  638.87
-34.9767  275.397  638.87
-35.6245  275.736  638.87
-36.2723  276.076  638.87
-36.9201  276.415  638.87
-37.568  276.755  638.87
-38.2158  277.094  638.87
-38.8636  277.433  638.87
-39.5114  277.773  638.87
-40.1593  278.112  638.87
-40.8071  278.452  638.87
-41.4549  278.791  638.87
-42.1027  279.131  638.87
-42.7506  279.47  638.87
-43.2874  279.439  638.87
-43.8243  279.408  638.87
-44.3612  279.377  638.87
-44.8981  279.346  638.87
-45.4349  279.315  638.87
-45.9718  279.284  638.87
-46.5087  279.253  638.87
-47.0456  279.222  638.87
-47.4944  278.965  638.87
-47.9433  278.708  638.87
-48.3921  278.45  638.87
-48.8409  278.193  638.87
-49.2898  277.936  638.87
-49.7386  277.678  638.87
-50.1875  277.421  638.87
-50.6363  277.164  638.87
-51.0852  276.906  638.87
-51.534  276.649  638.87
-51.9828  276.391  638.87
-52.4317  276.134  638.87
-52.8805  275.877  638.87
-53.3294  275.619  638.87
-53.7782  275.362  638.87
-54.2271  275.105  638.87
-54.4438  274.63  638.87
-54.6606  274.155  638.87
-54.9206  273.421  638.87
-55.1806  272.687  638.87
-55.4407  271.953  638.87
-55.7007  271.219  638.87
-55.655  270.679  638.87
-55.6093  270.139  638.87
-55.5636  269.6  638.87
-55.5178  269.06  638.87
-55.2697  268.213  638.87
-55.0216  267.367  638.87
-54.6646  266.993  638.87
-54.3076  266.62  638.87
-53.9506  266.247  638.87
-53.5936  265.874  638.87
-53.2366  265.501  638.87
-52.8797  265.128  638.87
-52.5227  264.755  638.87
-52.1657  264.382  638.87
-51.8087  264.009  638.87
-51.4517  263.635  638.87
-51.0947  263.262  638.87
-50.7377  262.889  638.87
-50.3807  262.516  638.87
-50.0237  262.143  638.87
-49.6668  261.77  638.87
-49.3098  261.397  638.87
-48.9528  261.024  638.87
-48.5958  260.651  638.87
-48.2388  260.278  638.87
-47.8818  259.904  638.87
-47.5248  259.531  638.87
-47.1678  259.158  638.87
-46.8109  258.785  638.87
-46.4539  258.412  638.87
-46.0969  258.039  638.87
-45.7399  257.666  638.87
-45.3829  257.293  638.87
-45.0259  256.92  638.87
-44.6689  256.546  638.87
-44.3119  256.173  638.87
-43.9549  255.8  638.87
-43.598  255.427  638.87
-43.241  255.054  638.87
-42.884  254.681  638.87
-42.527  254.308  638.87
-42.17  253.935  638.87
-41.813  253.562  638.87
-41.456  253.189  638.87
-41.099  252.815  638.87
-40.742  252.442  638.87
-40.3851  252.069  638.87
-40.0281  251.696  638.87
-39.6711  251.323  638.87
-39.3141  250.95  638.87
-38.9571  250.577  638.87
-38.6001  250.204  638.87
-38.2431  249.831  638.87
-37.8861  249.457  638.87
-37.5292  249.084  638.87
-37.1722  248.711  638.87
-36.8152  248.338  638.87
-36.4582  247.965  638.87
-36.1012  247.592  638.87
-35.7442  247.219  638.87
-35.3872  246.846  638.87
-35.0302  246.473  638.87
-34.6732  246.099  638.87
-34.3162  245.726  638.87
-33.9593  245.353  638.87
-33.6023  244.98  638.87
-33.2453  244.607  638.87
-32.8883  244.234  638.87
-32.5313  243.861  638.87
-32.1743  243.488  638.87
-31.8173  243.115  638.87
-31.4603  242.742  638.87
-31.1034  242.368  638.87
-30.7464  241.995  638.87
-30.3894  241.622  638.87
-30.0324  241.249  638.87
-29.6754  240.876  638.87
-29.3184  240.503  638.87
-28.9614  240.13  638.87
-28.6044  239.757  638.87
-28.2474  239.384  638.87
-27.8905  239.01  638.87
-27.5335  238.637  638.87
-27.1765  238.264  638.87
-26.8195  237.891  638.87
-26.4625  237.518  638.87
-26.1055  237.145  638.87
-25.7485  236.772  638.87
-25.3915  236.399  638.87
-25.0346  236.026  638.87
-24.6776  235.652  638.87
-24.3206  235.279  638.87
-23.9636  234.906  638.87
-23.6066  234.533  638.87
-23.2496  234.16  638.87
-22.8926  233.787  638.87
-22.5356  233.414  638.87
-22.1786  233.041  638.87
-21.8217  232.668  638.87
-21.4647  232.295  638.87
-21.1077  231.921  638.87
-20.7507  231.548  638.87
-20.3937  231.175  638.87
-20.0367  230.802  638.87
-19.6797  230.429  638.87
-19.3227  230.056  638.87
-18.9657  229.683  638.87
-18.6088  229.31  638.87
-18.2518  228.937  638.87
-17.8948  228.563  638.87
-17.5378  228.19  638.87
-17.1808  227.817  638.87
-16.8238  227.444  638.87
-16.4668  227.071  638.87
-16.1098  226.698  638.87
-15.7528  226.325  638.87
-15.3959  225.952  638.87
-15.0389  225.579  638.87
-14.6819  225.206  638.87
-14.3249  224.832  638.87
-13.9679  224.459  638.87
-13.6109  224.086  638.87
-13.2539  223.713  638.87
-12.8969  223.34  638.87
-12.54  222.967  638.87
-12.183  222.594  638.87
-11.826  222.221  638.87
-11.469  221.848  638.87
-11.112  221.474  638.87
-10.755  221.101  638.87
-10.398  220.728  638.87
-10.041  220.355  638.87
-9.68405  219.982  638.87
-9.32706  219.609  638.87
-8.90711  219.306  638.87
-8.48716  219.003  638.87
-8.06721  218.699  638.87
-7.64726  218.396  638.87
-6.86233  217.852  638.87
-6.07741  217.309  638.87
-5.29249  216.765  638.87
-4.50757  216.221  638.87
-3.72264  215.677  638.87
-2.93772  215.134  638.87
-2.1528  214.59  638.87
-1.36788  214.046  638.87
-0.879539  214.326  638.87
-0.391201  214.606  638.87
0.0971368  214.885  638.87
0.585475  215.165  638.87
1.07381  215.445  638.87
1.56215  215.725  638.87
2.05049  216.005  638.87
2.53883  216.284  638.87
3.02716  216.564  638.87
3.5155  216.844  638.87
4.00384  217.124  638.87
4.49218  217.404  638.87
4.98051  217.683  638.87
5.46885  217.963  638.87
5.95719  218.243  638.87
6.44553  218.523  638.87
6.88077  218.803  638.87
7.31601  219.084  638.87
7.75125  219.365  638.87
8.18649  219.646  638.87
8.62173  219.927  638.87
9.05697  220.208  638.87
9.49221  220.489  638.87
9.92745  220.77  638.87
9.953  221.498  638.87
9.97854  222.227  638.87
10.0041  222.956  638.87
10.0296  223.685  638.87
10.0436  224.261  638.87
10.0577  224.836  638.87
10.0717  225.412  638.87
10.0857  225.988  638.87
9.99139  226.699  638.87
9.89709  227.41  638.87
9.7138  228.008  638.87
9.53051  228.606  638.87
9.2349  229.333  638.87
8.93929  230.06  638.87
8.64368  230.786  638.87
8.34807  231.513  638.87
8.01088  232.218  638.87
7.6737  232.924  638.87
7.33651  233.629  638.87
6.99933  234.334  638.87
6.66214  235.039  638.87
6.32496  235.744  638.87
5.98777  236.449  638.87
5.65059  237.155  638.87
5.3134  237.86  638.87
4.97622  238.565  638.87
4.63903  239.27  638.87
4.30185  239.975  638.87
3.96466  240.681  638.87
3.62748  241.386  638.87
3.29029  242.091  638.87
2.95311  242.796  638.87
2.61592  243.501  638.87
2.27874  244.206  638.87
1.94155  244.912  638.87
1.60437  245.617  638.87
1.26718  246.322  638.87
0.929999  247.027  638.87
0.592815  247.732  638.87
s
-1.82079  235.31  612.14
-1.96612  236.211  612.14
-2.11145  237.111  612.14
-2.25678  238.012  612.14
-2.40211  238.912  612.14
-2.54744  239.813  612.14
-2.69277  240.713  612.14
-2.83811  241.614  612.14
-2.98344  242.514  612.14
-3.12877  243.415  612.14
-3.2644  244.042  612.14
-3.40003  244.669  612.14
-3.54122  245.288  612.14
-3.68241  245.906  612.14
-3.98185  246.547  612.14
-4.28129  247.188  612.14
-4.63049  247.57  612.14
-4.97968  247.952  612.14
-5.32887  248.334  612.14
-5.67807  248.716  612.14
-6.04404  249.079  612.14
-6.41002  249.442  612.14
-6.81555  249.762  612.14
-7.22109  250.082  612.14
-7.4388  250.242  612.14
-8.05198  250.527  612.14
-8.66517  250.813  612.14
-9.27836  251.098  612.14
-9.89155  251.384  612.14
-10.5047  251.67  612.14
-11.1179  251.955  612.14
-11.7311  252.241  612.14
-12.3443  252.526  612.14
-12.9575  252.812  612.14
-13.5707  253.098  612.14
-14.1839  253.383  612.14
-14.7971  253.669  612.14
-15.4103  253.954  612.14
-16.0235  254.24  612.14
-16.6366  254.526  612.14
-17.2498  254.811  612.14
-17.863  255.097  612.14
-18.4762  255.382  612.14
-19.0894  255.668  612.14
-19.7026  255.954  612.14
-20.3158  256.239  612.14
-20.929  256.525  612.14
-21.5422  256.81  612.14
-22.1553  257.096  612.14
-22.7685  257.382  612.14
-23.3817  257.667  612.14
-23.9949  257.953  612.14
-24.6081  258.239  612.14
-25.2213  258.524  612.14
-25.8345  258.81  612.14
-26.4477  259.095  612.14
-27.0609  259.381  612.14
-27.7462  259.63  612.14
-28.4315  259.879  612.14
-29.2132  260.126  612.14
-29.995  260.372  612.14
-30.7767  260.618  612.14
-31.5585  260.865  612.14
-32.2834  260.938  612.14
-33.0084  261.011  612.14
-33.7333  261.084  612.14
-34.4583  261.157  612.14
-35.1832  261.231  612.14
-35.9081  261.304  612.14
-36.6331  261.377  612.14
-37.358  261.45  612.14
-38.083  261.524  612.14
-38.8079  261.597  612.14
-39.5329  261.67  612.14
-40.2578  261.743  612.14
-40.9827  261.816  612.14
-41.7077  261.89  612.14
-42.4326  261.963  612.14
-43.1576  262.036  612.14
-43.8825  262.109  612.14
-44.6074  262.183  612.14
-45.3324  262.256  612.14
-46.0573  262.329  612.14
-46.7823  262.402  612.14
-47.5072  262.475  612.14
-48.2322  262.549  612.14
-48.9571  262.622  612.14
-49.682  262.695  612.14
-50.407  262.768  612.14
-51.1319  262.842  612.14
-51.8569  262.915  612.14
-52.5818  262.988  612.14
-53.3067  263.061  612.14
-54.0317  263.134  612.14
-54.7566  263.208  612.14
-55.2202  262.855  612.14
-55.6272  262.511  612.14
-56.0343  262.167  612.14
-56.4413  261.823  612.14
-56.8483  261.479  612.14
-57.2554  261.135  612.14
-57.6624  260.791  612.14
-58.0695  260.447  612.14
-58.4765  260.103  612.14
-58.8836  259.759  612.14
-59.2906  259.415  612.14
-59.6976  259.071  612.14
-60.1047  258.727  612.14
-60.5117  258.383  612.14
-60.9188  258.039  612.14
-61.3258  257.695  612.14
-61.7328  257.351  612.14
-62.1752  256.628  612.14
-62.3885  255.889  612.14
-62.6018  255.15  612.14
-62.757  254.398  612.14
-62.9121  253.645  612.14
-62.8483  253.131  612.14
-62.7845  252.616  612.14
-62.7207  252.101  612.14
-62.6569  251.586  612.14
-62.3124  251.202  612.14
-61.9678  250.818  612.14
-61.6233  250.434  612.14
-61.2788  250.05  612.14
-60.9342  249.667  612.14
-60.5897  249.283  612.14
-60.2452  248.899  612.14
-59.9007  248.515  612.14
-59.5561  248.131  612.14
-59.2116  247.747  612.14
-58.8671  247.363  612.14
-58.5225  246.979  612.14
-58.178  246.595  612.14
-57.8335  246.211  612.14
-57.489  245.827  612.14
-57.1444  245.443  612.14
-56.7999  245.059  612.14
-56.4554  244.675  612.14
-56.1108  244.291  612.14
-55.7663  243.907  612.14
-55.4218  243.523  612.14
-55.0773  243.139  612.14
-54.7327  242.755  612.14
-54.3882  242.371  612.14
-54.0437  241.987  612.14
-53.6991  241.603  612.14
-53.3546  241.22  612.14
-53.0101  240.836  612.14
-52.6656  240.452  612.14
-52.321  240.068  612.14
-51.9765  239.684  612.14
-51.632  239.3  612.14
-51.2874  238.916  612.14
-50.9429  238.532  612.14
-50.5984  238.148  612.14
-50.2539  237.764  612.14
-49.9093  237.38  612.14
-49.5648  236.996  612.14
-49.2203  236.612  612.14
-48.8757  236.228  612.14
-48.5312  235.844  612.14
-48.1867  235.46  612.14
-47.8422  235.076  612.14
-47.4976  234.692  612.14
-47.1531  234.308  612.14
-46.8086  233.924  612.14
-46.4641  233.54  612.14
-46.1195  233.157  612.14
-45.775  232.773  612.14
-45.4305  232.389  612.14
-45.0859  232.005  612.14
-44.7414  231.621  612.14
-44.3969  231.237  612.14
-44.0524  230.853  612.14
-43.7078  230.469  612.14
-43.3633  230.085  612.14
-43.0188  229.701  612.14
-42.6742  229.317  612.14
-42.3297  228.933  612.14
-41.9852  228.549  612.14
-41.6407  228.165  612.14
-41.2961  227.781  612.14
-40.9516  227.397  612.14
-40.6071  227.013  612.14
-40.2625  226.629  612.14
-39.918  226.245  612.14
-39.5735  225.861  612.14
-39.229  225.477  612.14
-38.8844  225.094  612.14
-38.5399  224.71  612.14
-38.1954  224.326  612.14
-37.8508  223.942  612.14
-37.5063  223.558  612.14
-37.1618  223.174  612.14
-36.8173  222.79  612.14
-36.4727  222.406  612.14
-36.1282  222.022  612.14
-35.7837  221.638  612.14
-35.4391  221.254  612.14
-35.0946  220.87  612.14
-34.7501  220.486  612.14
-34.4056  220.102  612.14
-34.061  219.718  612.14
-33.7165  219.334  612.14
-33.372  218.95  612.14
-33.0274  218.566  612.14
-32.6829  218.182  612.14
-32.3384  217.798  612.14
-31.9939  217.414  612.14
-31.6493  217.03  612.14
-31.3048  216.647  612.14
-30.9603  216.263  612.14
-30.6157  215.879  612.14
-30.2712  215.495  612.14
-29.9267  215.111  612.14
-29.5822  214.727  612.14
-29.2376  214.343  612.14
-28.8931  213.959  612.14
-28.5486  213.575  612.14
-28.204  213.191  612.14
-27.8595  212.807  612.14
-27.515  212.423  612.14
-27.1705  212.039  612.14
-26.8259  211.655  612.14
-26.4814  211.271  612.14
-26.1369  210.887  612.14
-25.7923  210.503  612.14
-25.4478  210.119  612.14
-25.1033  209.735  612.14
-24.7588  209.351  612.14
-24.4142  208.967  612.14
-24.0697  208.583  612.14
-23.7252  208.2  612.14
-23.3806  207.816  612.14
-23.0361  207.432  612.14
-22.6916  207.048  612.14
-22.3471  206.664  612.14
-22.0025  206.28  612.14
-21.658  205.896  612.14
-21.3135  205.512  612.14
-20.969  205.128  612.14
-20.6244  204.744  612.14
-20.2799  204.36  612.14
-19.9354  203.976  612.14
-19.5908  203.592  612.14
-19.2463  203.208  612.14
-18.9018  202.824  612.14
-18.5573  202.44  612.14
-17.8048  201.953  612.14
-17.0523  201.466  612.14
-16.2999  200.979  612.14
-15.5474  200.492  612.14
-15.4581  200.467  612.14
-14.7247  200.483  612.14
-13.9913  200.498  612.14
-13.2579  200.513  612.14
-12.5245  200.528  612.14
-11.7911  200.544  612.14
-11.0577  200.559  612.14
-10.3243  200.574  612.14
-9.59089  200.59  612.14
-8.99593  200.814  612.14
-8.40096  201.039  612.14
-7.806  201.263  612.14
-7.21104  201.488  612.14
-6.61608  201.713  612.14
-6.02112  201.937  612.14
-5.42615  202.162  612.14
-4.83119  202.386  612.14
-4.13439  202.924  612.14
-3.43759  203.462  612.14
-2.74078  203.999  612.14
-2.04398  204.537  612.14
-1.34718  205.074  612.14
-0.650376  205.612  612.14
0.0464263  206.15  612.14
0.743229  206.687  612.14
1.07736  207.114  612.14
1.26229  207.784  612.14
1.44722  208.455  612.14
1.63215  209.125  612.14
1.81707  209.795  612.14
1.81415  210.658  612.14
1.81122  211.521  612.14
1.75379  212.31  612.14
1.69635  213.1  612.14
1.60909  213.849  612.14
1.52183  214.598  612.14
1.3765  215.499  612.14
1.23117  216.399  612.14
1.08584  217.3  612.14
0.940508  218.2  612.14
0.795177  219.101  612.14
0.649845  220.001  612.14
0.504514  220.902  612.14
0.359183  221.802  612.14
0.213852  222.703  612.14
0.0685203  223.603  612.14
-0.076811  224.504  612.14
-0.222142  225.404  612.14
-0.367474  226.305  612.14
-0.512805  227.205  612.14
-0.658136  228.106  612.14
