-54.5739 220.228 1152.47
-51.3657 219.923 1154.33
-50.8613 219.619 1156.53
-52.1439 219.392 1158.57
-50.5871 218.586 1160.6
-53.8556 219.01 1162.63
-53.3592 218.693 1164.66
-51.5991 218.026 1166.71
-52.7713 217.641 1168.74
-50.1891 217.832 1170.77
-52.9877 217.417 1172.82
-49.3745 216.272 1174.85
-52.4076 216.354 1176.88
-53.285 216.276 1178.91
-53.429 215.292 1180.96
-50.461 214.776 1182.98
-52.5695 214.514 1185.03
-48.7216 214.365 1187.06
-48.1279 212.472 1189.09
-50.9124 212.05 1191.12
-50.4547 211.69 1193.17
-50.9422 212.019 1195.19
-52.4584 209.569 1197.23
-49.8738 209.767 1199.27
-52.1713 209.873 1201.14
-50.4711 208.687 1203.33
-49.2828 207.912 1205.37
-50.7056 207.175 1207.41
-49.2954 207.832 1209.44
-48.9352 205.652 1211.47
-48.5732 205.185 1213.52
-49.3328 205.223 1215.54
-47.5023 204.626 1217.58
-47.9139 203.315 1219.62
-49.5979 202.347 1221.66
-48.6681 202.493 1223.68
-49.421 200.804 1225.72
-46.0534 200.149 1227.76
-51.1092 198.96 1229.8
-49.2333 198.392 1231.66
-49.8946 196.787 1233.87
-50.8824 194.816 1235.89
-47.8674 193.738 1237.93
-51.499 192.36 1239.96
-52.3123 190.566 1242.01
-52.8222 187.305 1244.03
-52.006 185.511 1246.07
-45.3304 182.849 1248.1
-45.2201 180.461 1250.14
-44.9385 176.461 1252.17
-52.5112 173.899 1254.21
-51.2372 170.692 1256.24
-46.2837 165.054 1258.28
-48.7033 160.154 1260.31
-57.3396 152.862 1262.35
-61.9739 148.296 1264.38
-56.1929 143.76 1266.42
-64.1198 139.676 1268.45
-68.823 137.042 1270.49
-69.9431 132.606 1272.52
-64.6591 128.048 1274.56
-70.9105 125.174 1276.59
-70.5148 122.499 1278.49
-73.2146 118.087 1280.66
-72.0178 114.212 1282.7
-71.0867 112.139 1284.73
-70.6395 109.44 1286.77
-68.8762 106.212 1288.8
-68.7171 103.099 1290.84
-67.2509 101.668 1292.87
s
-60.6713 -178.699 1152.47
-61.1254 -179.067 1154.33
-55.1542 -177.507 1156.53
-61.252 -177.14 1158.57
-57.898 -176.722 1160.6
-57.5724 -176.23 1162.63
-59.2062 -175.4 1164.66
-55.5691 -175.102 1166.71
-55.4086 -174.411 1168.74
-58.1418 -173.782 1170.77
-55.2219 -172.861 1172.82
-55.9284 -172.895 1174.85
-55.8221 -172.133 1176.88
-49.9256 -170.765 1178.91
-55.6985 -170.496 1180.96
-55.1632 -170.253 1182.98
-53.925 -169.074 1185.03
-55.7312 -167.759 1187.06
-54.8834 -167.897 1189.09
-51.8476 -167.125 1191.12
-53.4287 -166.071 1193.17
-54.6098 -165.517 1195.19
-54.3713 -164.903 1197.23
-51.5527 -163.852 1199.27
-49.2647 -163.43 1201.14
-53.892 -162.759 1203.33
-49.5338 -161.808 1205.37
-51.4103 -160.356 1207.41
-51.5281 -159.282 1209.44
-52.1545 -159.416 1211.47
-53.6694 -158.43 1213.52
-52.4599 -157.172 1215.54
-50.9495 -156.297 1217.58
-52.3506 -155.444 1219.62
-53.9457 -154.349 1221.66
-52.5446 -153.319 1223.68
-50.9665 -152.518 1225.72
-51.1426 -151.345 1227.76
-65.7874 -151.096 1229.8
-64.461 -150.679 1231.66
-63.5847 -148.54 1233.87
-63.655 -147.725 1235.89
-51.4625 -146.159 1237.93
-67.864 -144.968 1239.96
-65.6793 -143.199 1242.01
-51.3777 -141.434 1244.03
-66.3791 -139.848 1246.07
-66.6483 -137.412 1248.1
-68.4323 -134.583 1250.14
-49.0037 -132.318 1252.17
-54.3718 -129.305 1254.21
-51.6186 -125.178 1256.24
-55.1365 -121.367 1258.28
-56.245 -117.614 1260.31
-59.7373 -111.351 1262.35
-62.3615 -103.178 1264.38
-62.5825 -98.3999 1266.42
-66.5538 -93.9163 1268.45
-70.2596 -90.2941 1270.49
-70.5011 -86.1597 1272.52
-70.3563 -83.0083 1274.56
-71.1727 -78.4578 1276.59
-83.1063 -74.7575 1278.49
-69.6864 -71.4266 1280.66
-71.1598 -68.119 1282.7
s
