-143.674139 24.399860 1158.070000
-144.156277 23.675815 1158.089989
-143.661576 22.960294 1158.110009
-143.651681 22.240497 1158.129998
-143.706991 21.518266 1158.149987
-143.675774 20.798406 1158.170006
-143.991940 20.060338 1158.189995
-143.868738 19.342946 1158.210015
-144.202675 18.594973 1158.230004
-143.666767 17.908713 1158.249993
-144.465121 17.114137 1158.270012
-144.454876 16.382261 1158.290001
-145.008049 15.590116 1158.309990
-144.392870 14.919969 1158.330010
-144.300222 14.195077 1158.349999
-144.208005 13.470191 1158.369988
-145.467278 12.555311 1158.390007
-145.554747 11.791304 1158.409996
-145.463627 11.052060 1158.429985
-145.304021 10.323821 1158.450005
-145.500044 9.533536 1158.469994
-146.621693 8.565834 1158.490013
-146.659751 7.786016 1158.510002
-146.371520 7.069267 1158.529991
-146.329544 6.302664 1158.550011
-146.611333 5.462170 1158.570000
-146.767838 4.642413 1158.589989
-146.828062 3.839724 1158.610009
-146.641775 3.094073 1158.629998
-147.207419 2.153967 1158.649987
-147.009550 1.404295 1158.670006
-146.819499 0.652402 1158.689995
-147.817983 -0.440620 1158.710015
-146.282810 -0.806095 1158.730004
-147.346674 -1.941205 1158.749993
-147.061314 -2.675598 1158.770012
-147.608303 -3.679496 1158.790001
-147.460400 -4.466169 1158.809990
-147.926191 -5.466173 1158.830010
-148.841034 -6.639377 1158.849999
-148.037358 -7.210382 1158.869988
-148.423782 -8.215914 1158.890007
-147.832374 -8.859441 1158.909996
-147.830710 -9.729244 1158.929985
-148.058718 -10.697812 1158.950005
-148.838916 -11.905952 1158.969994
-148.647323 -12.724024 1158.990013
-148.652752 -13.630491 1159.010002
-148.659455 -14.544525 1159.029991
-148.695717 -15.479279 1159.050011
-149.423754 -16.744713 1159.070000
-149.082057 -17.523010 1159.089989
-148.763403 -18.313063 1159.110009
-149.107544 -19.434743 1159.129998
-149.527795 -20.611038 1159.149987
-149.444932 -21.543305 1159.170006
-148.865351 -22.218518 1159.189995
-149.678792 -23.646213 1159.210015
-150.520015 -25.117167 1159.230004
-150.194204 -25.956900 1159.249993
-151.106520 -27.514083 1159.270012
-151.132084 -28.580705 1159.290001
-152.216982 -30.295310 1159.309990
-152.471842 -31.538379 1159.330010
-152.528793 -32.675619 1159.349999
-153.464525 -34.386176 1159.369988
-153.991222 -35.866651 1159.390007
-153.553992 -36.735238 1159.409996
-154.084102 -38.258722 1159.429985
-154.298234 -39.592390 1159.450005
-154.406997 -40.872131 1159.469994
-154.179201 -41.929453 1159.490013
-153.796259 -42.883301 1159.510002
-153.681100 -44.040743 1159.529991
-153.575997 -45.218786 1159.550011
-153.423547 -46.374248 1159.570000
-152.861019 -47.222223 1159.589989
-152.732997 -48.417576 1159.610009
-152.262091 -49.349729 1159.629998
-152.282977 -50.692274 1159.649987
-151.966818 -51.771829 1159.670006
-151.466333 -52.704323 1159.689995
-151.004496 -53.675618 1159.710015
-150.588028 -54.693778 1159.730004
-150.137849 -55.690103 1159.749993
-149.994805 -56.975729 1159.770012
-149.343959 -57.806031 1159.790001
-148.935837 -58.868842 1159.809990
-148.260881 -59.684542 1159.830010
-147.555975 -60.472796 1159.849999
-147.390229 -61.801436 1159.869988
-146.871335 -62.791186 1159.890007
-146.200327 -63.632015 1159.909996
-145.779204 -64.739686 1159.929985
-145.457314 -65.966915 1159.950005
-144.728009 -66.767043 1159.969994
-144.034695 -67.609680 1159.990013
-143.711917 -68.875405 1160.010002
-143.023657 -69.740220 1160.029991
-142.220826 -70.476297 1160.050011
-141.754292 -71.614196 1160.070000
-141.146461 -72.596377 1160.089989
-140.740744 -73.838444 1160.110009
-140.187100 -74.914446 1160.129998
-139.423423 -75.735720 1160.149987
-138.821951 -76.773458 1160.170006
-138.219350 -77.822955 1160.189995
-137.566380 -78.818335 1160.210015
-136.837166 -79.721000 1160.230004
-136.033763 -80.528721 1160.249993
-135.370332 -81.542157 1160.270012
-134.694132 -82.550867 1160.290001
-134.000366 -83.547527 1160.309990
-133.422824 -84.733644 1160.330010
-132.497153 -85.405168 1160.349999
-131.949704 -86.672301 1160.369988
-131.198067 -87.638174 1160.390007
-130.529265 -88.753277 1160.409996
-129.615151 -89.480490 1160.429985
-128.988674 -90.701258 1160.450005
-128.136883 -91.557390 1160.469994
-127.211578 -92.294769 1160.490013
-126.251092 -92.975381 1160.510002
-125.596374 -94.223889 1160.529991
-124.695249 -95.038148 1160.550011
-123.869697 -96.008766 1160.570000
-123.088046 -97.083988 1160.589989
-122.106128 -97.781129 1160.610009
-121.133657 -98.505036 1160.629998
-120.372609 -99.681295 1160.649987
-119.467334 -100.578573 1160.670006
-118.374208 -101.081771 1160.689995
-117.726670 -102.585975 1160.710015
-116.651693 -103.155755 1160.730004
-115.766610 -104.177089 1160.749993
-114.841441 -105.128752 1160.770012
-113.834853 -105.903362 1160.790001
-112.681328 -106.321198 1160.809990
-111.760217 -107.342837 1160.830010
-110.820763 -108.346497 1160.849999
-109.664183 -108.784792 1160.869988
-108.550236 -109.344331 1160.890007
-107.714523 -110.720261 1160.909996
-106.622700 -111.387356 1160.929985
-105.589575 -112.251261 1160.950005
-104.423754 -112.723471 1160.969994
-103.227028 -113.100552 1160.990013
-102.027012 -113.467181 1161.010002
-100.739647 -113.529870 1161.029991
-99.608926 -114.138157 1161.050011
-97.983950 -114.846793 1160.600000
-97.250177 -115.038623 1161.070000
-95.899416 -114.816280 1161.070000
-94.697800 -115.174613 1161.070000
-93.002643 -113.400453 1161.070000
-91.772153 -113.552125 1161.070000
-90.489651 -113.449178 1161.070000
-89.221797 -113.386063 1161.070000
-87.937514 -113.209658 1161.070000
-86.301322 -111.094460 1161.070000
-84.992473 -110.596721 1161.070000
-83.677507 -109.986552 1161.070000
-82.503923 -110.177683 1161.070000
-81.326121 -110.341206 1161.070000
-80.285289 -111.477768 1161.070000
-79.098821 -111.639239 1161.070000
-77.910989 -111.790350 1161.070000
-76.487494 -109.873876 1161.070000
-75.102594 -107.979770 1161.070000
-73.845410 -107.042670 1161.070000
-72.697890 -107.148112 1161.070000
-71.510502 -106.748096 1161.070000
-70.337199 -106.426432 1161.070000
-69.189502 -106.408266 1161.070000
-68.026804 -106.074470 1161.070000
-66.887954 -106.129173 1161.070000
-65.736322 -105.820310 1161.070000
-64.598333 -105.799858 1161.070000
-63.454345 -105.385472 1161.070000
-62.315756 -104.721191 1161.070000
-61.188934 -104.134654 1161.070000
-60.067931 -104.054336 1161.070000
-58.947014 -104.039662 1161.070000
-57.822432 -104.161643 1161.070000
-56.700664 -104.127370 1161.070000
-55.579238 -104.083309 1161.070000
-54.495680 -103.315034 1161.070000
-53.412778 -102.739160 1161.070000
-52.067204 -106.046955 1161.070000
-50.929203 -105.962387 1161.070000
-49.791982 -105.867891 1161.070000
-48.752639 -104.756000 1161.070000
-47.554292 -105.325096 1161.070000
-46.422761 -105.201173 1161.070000
-45.292356 -105.067381 1161.070000
-44.243010 -104.317209 1161.070000
-43.201563 -103.586936 1161.070000
-42.085366 -103.425095 1161.070000
-40.966005 -103.282688 1161.070000
-39.752917 -103.696723 1161.070000
-38.635894 -103.504784 1161.070000
-37.488044 -103.478697 1161.070000
-36.368624 -103.289566 1161.070000
-35.251542 -103.086494 1161.070000
-34.140015 -102.855296 1161.070000
-32.703069 -104.091574 1161.070000
-31.532998 -104.054111 1161.070000
-30.292951 -104.291170 1161.070000
-28.500496 -106.706302 1161.070000
-27.357638 -106.416053 1161.070000
-26.310772 -105.767212 1161.070000
-25.866622 -102.968282 1161.070000
-25.217523 -101.047358 1161.070000
-24.165317 -100.589777 1161.070000
-23.228098 -99.764440 1161.070000
-22.146019 -99.428446 1161.070000
-21.135421 -98.872177 1161.070000
-19.944626 -98.866383 1161.070000
-18.961383 -98.237854 1161.070000
-18.180497 -97.052219 1161.070000
-16.992118 -96.268270 1160.600000
-16.372782 -95.466384 1161.045250
-15.333114 -95.058635 1161.020531
-14.329677 -94.559295 1160.995781
-13.409361 -93.858733 1160.971062
-12.405605 -93.373515 1160.946312
-11.385211 -92.930358 1160.921593
-10.523152 -92.123462 1160.896843
-9.779046 -91.068638 1160.872124
-8.980056 -90.162068 1160.847374
-8.092727 -89.465322 1160.822655
-7.380774 -88.411293 1160.797905
-6.543903 -87.639057 1160.773186
-6.146650 -85.997882 1160.748436
-5.238596 -85.408862 1160.723717
-4.558113 -84.386935 1160.698967
-4.010028 -83.138022 1160.674248
-3.348112 -82.129682 1160.649498
-2.632122 -81.239426 1160.624779
-2.118381 -80.006990 1160.600029
-1.804299 -78.457346 1160.575310
-1.074432 -77.654313 1160.550560
-0.492149 -76.616554 1160.525841
0.158517 -75.710082 1160.501091
0.451880 -74.246064 1160.476372
1.178696 -73.497709 1160.451622
1.124519 -71.554443 1160.426903
1.960374 -71.008337 1160.402153
2.711729 -70.336769 1160.377434
2.874763 -68.813398 1160.352684
3.431585 -67.887805 1160.327965
3.475337 -66.256105 1160.303215
3.959686 -65.269523 1160.278466
3.904497 -63.568863 1160.253746
4.480693 -62.746678 1160.228997
4.493192 -61.198753 1160.204277
4.999628 -60.317637 1160.179528
5.117447 -58.958686 1160.154808
5.453798 -57.897061 1160.130059
5.540121 -56.548957 1160.105339
5.940635 -55.602045 1160.080590
6.330651 -54.655417 1160.055870
6.543720 -53.517646 1160.031121
6.882477 -52.540874 1160.006401
6.869682 -51.186891 1159.981652
6.872226 -49.875862 1159.956932
7.291311 -49.036212 1159.932183
7.021634 -47.479081 1159.907463
7.265280 -46.486554 1159.882714
7.618430 -45.619023 1159.857994
7.679978 -44.469052 1159.833245
7.791140 -43.386670 1159.808525
7.722246 -42.146893 1159.783776
7.983696 -41.242516 1159.759056
8.259752 -40.362088 1159.734307
7.999222 -38.999405 1159.709587
8.296030 -38.164683 1159.684838
8.496837 -37.252902 1159.660118
8.430322 -36.119236 1159.635369
8.307230 -34.955472 1159.610649
8.381153 -33.976375 1159.585900
8.787909 -33.284598 1159.561180
8.567407 -32.087712 1159.536431
8.424599 -30.973245 1159.511681
8.438010 -29.998671 1159.486962
8.778267 -29.287862 1159.462212
9.175214 -28.623329 1159.437493
9.034566 -27.562797 1159.412743
8.745355 -26.410375 1159.388024
8.977219 -25.649171 1159.363274
8.917814 -24.689414 1159.338555
8.758098 -23.673403 1159.313805
8.852887 -22.843945 1159.289086
9.099300 -22.122908 1159.264336
9.249333 -21.343286 1159.239617
9.316799 -20.517246 1159.214867
9.343928 -19.673964 1159.190148
9.099828 -18.673149 1159.165398
9.389683 -18.008052 1159.140679
9.512899 -17.246703 1159.115929
9.497081 -16.410730 1159.091210
9.513866 -15.601860 1159.066460
9.667161 -14.876315 1159.041741
9.696488 -14.087784 1159.016991
10.031192 -13.468553 1158.992272
9.930964 -12.622816 1158.967522
10.254023 -12.002145 1158.942803
10.095308 -11.141152 1158.918053
10.236616 -10.436709 1158.893334
10.269120 -9.683884 1158.868584
10.318613 -8.944657 1158.843865
10.618319 -8.324591 1158.819115
10.873321 -7.684323 1158.794396
11.007438 -6.992016 1158.769646
11.055702 -6.266169 1158.744927
11.116482 -5.550024 1158.720177
11.171141 -4.835508 1158.695427
11.169375 -4.102836 1158.670708
11.204387 -3.389333 1158.645958
11.336516 -2.716295 1158.621239
11.656707 -2.113785 1158.596489
11.823699 -1.455270 1158.571770
12.221653 -0.877433 1158.547020
12.163267 -0.143444 1158.522301
11.911665 0.648035 1158.497551
11.777169 1.393736 1158.472832
11.978191 2.030425 1158.448082
12.096654 2.691679 1158.423363
12.155882 3.368572 1158.398613
12.078326 4.081050 1158.373894
12.315115 4.704509 1158.349144
12.458010 5.353465 1158.324425
12.325681 6.070607 1158.299675
12.340316 6.747049 1158.274956
12.494501 7.388698 1158.250206
12.694636 8.020266 1158.225487
12.627616 8.709668 1158.200737
12.473131 9.413143 1158.176018
12.662709 10.044554 1158.151268
12.662758 10.712258 1158.126549
12.782873 11.356634 1158.101799
12.753217 12.026187 1158.077080
12.977857 12.652994 1158.052330
12.862515 13.332796 1158.027611
12.856204 13.993494 1158.002861
12.836658 14.654206 1157.978142
12.616023 15.337750 1157.953392
12.588660 15.993965 1157.928643
12.633344 16.640826 1157.903923
12.652698 17.289719 1157.879174
12.543301 17.949125 1157.854454
12.592824 18.593109 1157.829705
12.606553 19.239576 1157.804985
12.649354 19.883716 1157.780236
12.633952 20.530966 1157.755516
12.586113 21.178772 1157.730767
12.363698 21.831345 1157.706047
12.362599 22.473845 1157.681298
12.346093 23.116301 1157.656578
12.378053 23.757850 1157.631829
12.433921 24.399860 1157.607109
12.572413 25.043565 1157.582360
12.455430 25.685327 1157.557640
12.403372 26.326942 1157.532891
12.426148 26.970555 1157.508171
12.618406 27.622358 1157.483422
12.706267 28.272543 1157.458702
12.917730 28.932417 1157.433953
12.908236 29.581238 1157.409233
12.872951 30.228656 1157.384484
12.862998 30.878564 1157.359764
12.933359 31.537025 1157.335015
13.042132 32.201859 1157.310295
13.275929 32.884059 1157.285546
13.361742 33.553532 1157.260826
13.383809 34.217548 1157.236077
13.367984 34.878151 1157.211357
13.459278 35.556110 1157.186608
13.467477 36.224273 1157.161858
13.545988 36.906196 1157.137139
13.698092 37.604463 1157.112389
13.711460 38.281827 1157.087670
13.912900 38.998177 1157.062920
14.517558 39.802519 1157.038201
14.391378 40.464951 1157.013451
14.351844 41.146847 1156.988732
14.230657 41.811844 1156.963982
14.481846 42.566807 1156.939263
14.823174 43.351807 1156.914513
14.641731 44.011003 1156.889794
14.577836 44.701504 1156.865044
14.524656 45.397096 1156.840325
14.653513 46.147331 1156.815575
14.642561 46.862172 1156.790856
14.634796 47.581500 1156.766106
14.624355 48.303698 1156.741387
14.564045 49.013495 1156.716637
14.564755 49.746689 1156.691918
14.570107 50.485789 1156.667168
14.545271 51.218748 1156.642449
14.527856 51.958517 1156.617699
14.490119 52.695098 1156.592980
14.586401 53.487285 1156.568230
14.571654 54.242749 1156.543511
14.380586 54.931927 1156.518761
14.419030 55.717704 1156.494042
14.170208 56.387918 1156.469292
14.298123 57.222566 1156.444573
14.256554 57.990355 1156.419823
14.235212 58.772623 1156.395073
14.146565 59.529380 1156.370354
14.178092 60.348087 1156.345604
14.272629 61.204923 1156.320885
14.286758 62.030651 1156.296135
14.006192 62.713690 1156.271416
13.709607 63.389572 1156.246666
13.701121 64.219608 1156.221947
13.600061 65.006970 1156.197197
13.814753 65.975082 1156.172478
13.574965 66.699238 1156.147728
13.331204 67.424081 1156.123009
13.147749 68.187512 1156.098259
13.069427 69.018784 1156.073540
12.996024 69.860461 1156.048790
13.004764 70.761228 1156.024071
13.323194 71.869320 1155.999321
13.024045 72.594332 1155.974602
12.857671 73.410238 1155.949852
13.254687 74.612716 1155.925133
12.880896 75.306643 1155.900383
13.104921 76.420977 1155.875664
12.880213 77.232869 1155.850914
12.669444 78.061112 1155.826195
12.533571 78.951643 1155.801445
12.758264 80.123070 1155.776726
12.512492 80.952953 1155.751976
12.765503 82.179398 1155.727257
12.344321 82.890852 1155.702507
12.158723 83.795621 1155.677788
12.172489 84.874350 1155.653038
12.494472 86.227578 1155.628319
12.204714 87.083956 1155.603569
12.085301 88.096180 1155.578820
11.984246 89.138021 1155.554100
12.334278 90.600456 1155.529351
12.031654 91.494167 1155.504631
11.828441 92.489663 1155.479882
12.015180 93.867970 1155.455162
11.872318 94.954290 1155.430413
11.610402 95.939568 1155.405693
11.293478 96.882272 1155.380944
10.943926 97.802791 1155.356224
11.264258 99.427336 1155.331475
10.895793 100.361312 1155.306755
10.700097 101.491406 1155.282006
10.610248 102.754917 1155.257286
10.484499 104.001271 1155.232537
10.145061 105.028273 1155.207817
9.655822 105.897428 1155.183068
9.506759 107.173881 1155.158348
9.292426 108.396274 1155.133599
9.003268 109.549809 1155.108879
8.383435 110.314580 1155.084130
8.509127 112.022331 1155.059410
8.055837 113.029124 1155.034661
7.479051 113.889719 1155.009941
7.249613 115.220879 1154.985192
6.779155 116.253460 1154.960472
6.400496 117.428729 1154.935723
6.159479 118.818852 1154.911003
5.578657 119.753861 1154.886254
5.153395 120.928547 1154.861534
4.440951 121.700166 1154.836785
4.058269 122.977630 1154.812035
3.461465 123.952744 1154.787316
3.079588 125.281231 1154.762566
2.454118 126.250033 1154.737847
1.859943 127.286275 1154.713097
1.467231 128.677229 1154.688378
0.690744 129.450707 1154.663628
0.016137 130.410151 1154.638909
-0.583982 131.518749 1154.614159
-1.234076 132.561286 1154.589440
-2.034516 133.348744 1154.564690
-2.474842 134.825006 1154.539971
-3.284223 135.633773 1154.515221
-4.104045 136.435261 1154.490502
-4.815875 137.466723 1154.465752
-5.590618 138.393300 1154.441033
-6.329200 139.415683 1154.416283
-7.174260 140.234701 1154.391564
-7.872512 141.392069 1154.366814
-8.722471 142.241464 1154.342095
-9.660290 142.907628 1154.317345
-10.621272 143.529805 1154.292626
-11.431490 144.524956 1154.267876
-12.405533 145.143013 1154.243157
-13.255878 146.085011 1154.218407
-14.052023 147.195710 1154.193688
-14.850635 148.337270 1154.168938
-16.013182 148.519219 1154.144219
-17.357137 148.177036 1154.119469
-18.564276 148.190854 1154.094750
-19.461468 148.846511 1154.330000
-20.519497 149.567515 1154.070000
-21.551826 150.112704 1154.070000
-22.650373 150.453812 1154.070000
-23.657296 151.104546 1154.070000
-24.733405 151.535398 1154.070000
-25.825267 151.917122 1154.070000
-26.894711 152.387641 1154.070000
-28.012907 152.682038 1154.070000
-29.082481 153.171807 1154.070000
-30.245343 153.289193 1154.070000
-31.371278 153.554315 1154.070000
-32.811633 152.401594 1154.070000
-33.929725 152.644355 1154.070000
-35.248399 151.901661 1154.070000
-36.108529 153.427358 1154.070000
-37.235447 153.641310 1154.070000
-38.364189 153.845420 1154.070000
-39.755152 152.483089 1154.070000
-40.981979 151.981550 1154.070000
-41.942869 153.178288 1154.070000
-43.067391 153.341336 1154.070000
-44.101208 154.194025 1154.070000
-45.177239 154.804647 1154.070000
-46.315831 154.939409 1154.070000
-47.525256 154.401071 1154.070000
-48.719292 153.902042 1154.070000
-49.849872 154.005927 1154.070000
-50.981316 154.099943 1154.070000
-52.258715 152.107936 1154.070000
-53.373504 152.181003 1154.070000
-54.512960 151.785034 1154.070000
-55.567259 153.157370 1154.070000
-56.691081 153.201525 1154.070000
-57.805449 153.609927 1154.070000
-58.934583 153.551520 1154.070000
-60.061716 153.566275 1154.070000
-61.188934 153.571193 1154.070000
-62.316025 153.551741 1154.070000
-63.443031 153.536988 1154.070000
-64.614641 155.222334 1154.070000
-65.756137 155.187458 1154.070000
-66.930339 155.899669 1154.070000
-68.073413 155.763540 1154.070000
-69.348665 157.810286 1154.070000
-70.512565 157.734000 1154.070000
-71.675755 157.647560 1154.070000
-72.695070 155.915603 1154.070000
-73.879582 156.197276 1154.070000
-75.343964 159.075972 1154.070000
-76.518681 158.947320 1154.070000
-77.692230 158.808421 1154.070000
-79.017971 159.824846 1154.070000
-80.199084 159.664103 1154.070000
-81.378748 159.493060 1154.070000
-82.474077 158.788965 1154.070000
-83.646018 158.598103 1154.070000
-84.912716 158.944111 1154.070000
-86.307620 159.928163 1154.070000
-87.489356 159.703803 1154.070000
-88.738769 159.811624 1154.070000
-89.832290 159.156255 1154.070000
-91.097834 159.310189 1154.070000
-92.307801 159.190480 1154.070000
-93.600503 159.403760 1154.070000
-95.414999 161.673110 1154.070000
-96.703664 161.725133 1154.070000
-98.640268 162.603646 1154.330000
-99.550988 162.728958 1154.096855
-100.715183 162.244272 1154.123680
-101.918420 161.900302 1154.150536
-102.844145 160.647915 1154.177391
-103.895382 159.847410 1154.204216
-104.942927 159.060805 1154.231072
-106.079680 158.564158 1154.257927
-107.286771 158.277699 1154.284752
-108.332423 157.528967 1154.311608
-109.495925 157.122227 1154.338463
-110.407909 156.041988 1154.365288
-111.321251 154.999011 1154.392144
-112.616885 154.957320 1154.418999
-113.653974 154.255390 1154.445824
-114.804904 153.840263 1154.472679
-115.719367 152.865509 1154.499535
-116.573181 151.774908 1154.526390
-117.547933 150.984244 1154.553215
-118.647007 150.480094 1154.580071
-119.689900 149.855586 1154.606926
-120.606585 148.971557 1154.633751
-121.644224 148.351573 1154.660607
-122.538760 147.448575 1154.687462
-123.583598 146.856283 1154.714287
-124.593692 146.199267 1154.741143
-125.072840 144.548012 1154.767998
-126.123980 143.995337 1154.794823
-126.938720 143.015614 1154.821678
-127.817470 142.165398 1154.848534
-128.842618 141.579478 1154.875359
-129.394606 140.190114 1154.902214
-130.399490 139.585568 1154.929070
-130.973807 138.278423 1154.955895
-132.386981 138.340553 1154.982750
-132.697665 136.646083 1155.009606
-133.668388 136.008432 1155.036431
-134.422167 135.043205 1155.063286
-135.341936 134.336206 1155.090142
-135.561091 132.612020 1155.116967
-136.402828 131.816433 1155.143822
-137.336170 131.154348 1155.170677
-137.944989 130.045507 1155.197502
-138.553984 128.952725 1155.224358
-139.234940 127.970408 1155.251213
-140.239303 127.420306 1155.278069
-140.983670 126.532465 1155.304894
-141.571940 125.455148 1155.331749
-142.317755 124.585611 1155.358605
-142.655956 123.227260 1155.385430
-143.249071 122.195323 1155.412285
-144.108491 121.486187 1155.439141
-144.740482 120.514921 1155.465966
-145.387527 119.569056 1155.492821
-145.924880 118.508662 1155.519677
-146.670042 117.686119 1155.546501
-146.678431 116.076121 1155.573357
-147.940605 115.817046 1155.600212
-148.215452 114.518457 1155.627037
-148.641886 113.392630 1155.653893
-149.292802 112.503727 1155.680748
-149.968916 111.643705 1155.707573
-150.353076 110.504671 1155.734429
-150.745073 109.385463 1155.761284
-151.101989 108.245140 1155.788109
-151.467752 107.125155 1155.814965
-152.190989 106.338478 1155.841820
-152.798248 105.448935 1155.868645
-153.095379 104.292914 1155.895500
-153.391258 103.148084 1155.922356
-153.825789 102.131411 1155.949181
-154.488104 101.309760 1155.976036
-154.438534 99.911897 1156.002892
-154.960959 98.989496 1156.029717
-154.763940 97.508667 1156.056572
-155.219891 96.552351 1156.083428
-155.779751 95.679153 1156.110283
-155.257426 94.006882 1156.137108
-155.660927 93.037780 1156.163964
-155.238370 91.484670 1156.190819
-156.051675 90.823466 1156.217644
-156.038108 89.587891 1156.244500
-155.769890 88.195520 1156.271355
-155.777393 87.006595 1156.298180
-155.989974 85.964375 1156.325035
-155.278374 84.341444 1156.351891
-155.098856 83.081292 1156.378716
-154.446965 81.548455 1156.405571
-154.564463 80.505538 1156.432427
-153.999038 79.069189 1156.459252
-153.003453 77.408997 1156.486107
-152.982714 76.334282 1156.512963
-152.015117 74.745635 1156.539788
-152.439603 73.944931 1156.566643
-152.867866 73.146413 1156.593499
-151.684757 71.509004 1156.620323
-151.582067 70.457462 1156.647179
-151.529123 69.441816 1156.674034
-151.761768 68.575183 1156.700859
-151.661860 67.553232 1156.727715
-150.978800 66.269562 1156.754570
-150.637559 65.163946 1156.781395
-150.987572 64.380789 1156.808251
-150.990238 63.446578 1156.835106
-150.622414 62.362119 1156.861931
-150.848673 61.538139 1156.888787
-150.541285 60.500553 1156.915642
-150.429537 59.552668 1156.942498
-149.977925 58.482760 1156.969323
-150.307035 57.719752 1156.996178
-150.511284 56.910536 1157.023033
-149.270707 55.591251 1157.049858
-149.512534 54.812114 1157.076714
-149.730673 54.025511 1157.103569
-150.418469 53.392293 1157.130394
-149.529140 52.253420 1157.157250
-149.714422 51.464818 1157.184105
-149.951695 50.692587 1157.210930
-149.262442 49.654532 1157.237786
-149.294777 48.833772 1157.264641
-148.940696 47.912873 1157.291466
-148.873327 47.076585 1157.318322
-149.091349 46.316393 1157.345177
-148.695673 45.408369 1157.372002
-148.598462 44.579939 1157.398857
-148.516870 43.759997 1157.425713
-148.187448 42.891965 1157.452538
-147.661898 41.992983 1157.479393
-147.527986 41.182471 1157.506249
-147.494599 40.395669 1157.533074
-147.531625 39.624406 1157.559929
-146.892135 38.741657 1157.586785
-146.569080 37.922746 1157.613610
-146.726362 37.183514 1157.640465
-146.484927 36.387430 1157.667321
-146.240289 35.597083 1157.694176
-146.157092 34.832638 1157.721001
-146.160327 34.081127 1157.747856
-146.250541 33.340195 1157.774712
-146.216815 32.587113 1157.801537
-145.434321 31.770376 1157.828392
-144.170446 30.930646 1157.855248
-144.217728 30.205798 1157.882073
-144.146496 29.473761 1157.908928
-144.154347 28.747893 1157.935784
-144.198265 28.024125 1157.962609
-144.154576 27.297084 1157.989464
-144.220506 26.574118 1158.016320
-143.595094 25.838264 1158.043145
-144.051235 25.122988 1158.070000
s
