-47.513749 184.703289 1244.371227
-49.294387 184.356762 1244.919776
-50.938852 183.966717 1246.515419
-52.674766 183.533734 1247.292766
-54.471173 183.058392 1247.677640
-56.249673 182.541210 1248.318059
-58.021752 181.982739 1249.080968
-59.754979 181.383557 1248.428007
-61.502078 180.744244 1249.072456
-63.160055 180.065289 1248.760149
-64.857129 179.347302 1248.539950
-66.487602 178.590832 1249.336594
-67.993285 177.796429 1248.421346
-69.507428 176.964642 1248.094519
-70.933477 176.096050 1247.685556
-72.576838 175.191174 1247.738119
-73.899279 174.250591 1247.307930
-75.241449 173.274853 1246.640787
-76.398163 172.264538 1246.446848
-77.457268 171.220165 1245.378449
-79.112975 170.142315 1245.520369
-80.191768 169.031536 1245.441488
-81.348405 167.888409 1244.807609
-82.592005 166.713452 1244.526336
-84.113103 165.507214 1244.420532
-85.178561 164.270306 1244.213069
-86.149022 163.003246 1243.634707
-87.170262 161.706616 1243.283437
-89.012898 160.380932 1243.460095
-90.366196 159.026776 1243.930062
-90.847847 157.644695 1243.059758
-92.650224 156.235272 1243.611376
-93.519844 154.799023 1243.108164
-95.213478 153.336529 1243.573147
-96.769510 151.848339 1243.933003
-97.762806 150.335003 1243.615713
-98.625960 148.797100 1243.161980
-100.799451 147.235180 1244.030029
-101.713262 145.649792 1244.171465
-103.336033 144.041485 1244.140821
-104.711476 142.410809 1244.304156
-105.914514 140.758343 1244.373372
-107.674401 139.084637 1244.828962
-108.354995 137.390270 1244.499147
-110.487705 135.675732 1244.573183
-111.242518 133.941631 1244.893329
-112.244234 132.188549 1244.817134
-113.473935 130.416973 1244.910815
-114.817351 128.627484 1245.120698
-115.582424 126.820660 1244.940036
-116.876767 124.997051 1245.155515
-117.988114 123.157208 1245.152004
-119.088898 121.301678 1245.391326
-120.517872 119.431042 1245.590973
-121.401861 117.545819 1245.633373
-122.744291 115.646588 1246.028189
-123.337026 113.733898 1246.003027
-124.991677 111.808331 1246.643991
-125.469036 109.870419 1246.465370
-127.086938 107.920727 1247.136642
-127.981685 105.959789 1247.255790
-128.725790 103.988201 1247.293278
-129.399595 102.006481 1247.505523
-129.901238 100.015209 1247.494116
-130.182923 98.014935 1247.374590
-130.323188 96.006222 1247.199808
-130.352648 93.989605 1246.985529
-130.243231 91.965664 1246.719687
-130.072649 89.934948 1246.451385
-129.824454 87.898007 1246.168853
-129.524427 85.855404 1245.887971
-129.130173 83.807705 1245.609623
-128.768486 81.755444 1245.338750
-128.281300 79.699185 1245.011777
-127.815150 77.639492 1244.726719
-127.251643 75.576916 1244.406359
-127.074078 73.512020 1244.203084
-126.644328 71.445339 1244.039948
-126.047248 69.377453 1243.840214
-125.652403 67.308926 1243.727753
-125.124631 65.240277 1243.602254
-124.836456 63.172100 1243.513966
-124.565677 61.104931 1243.537641
-124.286397 59.039318 1243.572114
-124.119168 56.975842 1243.686061
-123.980993 54.915051 1243.849003
-123.830671 52.857495 1243.995060
-123.556273 50.803738 1244.090057
-123.229809 48.754330 1244.161284
-122.857119 46.709820 1244.210291
-122.300755 44.670788 1244.102261
-121.857037 42.637768 1244.152946
-121.557489 40.611324 1244.200123
-121.120035 38.592007 1244.251525
-120.754525 36.580380 1244.369353
-120.437444 34.577007 1244.527296
-120.321848 32.582440 1244.613203
-120.137967 30.597225 1244.889230
-119.979092 28.621914 1245.205794
-119.811159 26.657086 1245.540105
-119.609994 24.703289 1245.874501
-119.531171 22.843609 1245.635622
-119.475281 20.971234 1245.395867
-119.445406 19.086758 1245.160874
-119.464893 17.190746 1244.952038
-119.555004 15.283749 1244.786414
-119.727709 13.366345 1244.670362
-119.983509 11.439099 1244.604588
-120.267312 9.502590 1244.567894
-120.215235 7.557369 1244.538360
-120.775060 5.604000 1244.700757
-121.079671 3.643063 1244.685014
-121.351332 1.675121 1244.651858
-121.563252 -0.299259 1244.572934
-121.575913 -2.279514 1244.459420
-121.678096 -4.265064 1244.329216
-121.803062 -6.255344 1244.220913
-121.965509 -8.249805 1244.151821
-122.181139 -10.247867 1244.122318
-122.473579 -12.248966 1244.153915
-122.780112 -14.252521 1244.202382
-123.428273 -16.257984 1244.499057
-123.906524 -18.264782 1244.687112
-124.443767 -20.272342 1244.927081
-124.944226 -22.280102 1245.153123
-125.519375 -24.287487 1245.444067
-125.882318 -26.293941 1245.609464
-126.962919 -28.298893 1246.134139
-127.636123 -30.301769 1246.394786
-128.021779 -32.302013 1246.625508
-128.367830 -34.299053 1246.853974
-127.978792 -36.292316 1246.893583
-128.701515 -38.281238 1247.419750
-128.883787 -40.265255 1247.605148
-129.209106 -42.243801 1247.924193
-129.262203 -44.216297 1248.064629
-129.202431 -46.182194 1248.167630
-129.057263 -48.140911 1248.241982
-128.814340 -50.091884 1248.280852
-128.190293 -52.034550 1248.089410
-127.735135 -53.968334 1248.047147
-127.435545 -55.892673 1247.987666
-126.935992 -57.807003 1247.938253
-125.761466 -59.710758 1247.705495
-124.996669 -61.603359 1247.493615
-124.220466 -63.484249 1247.387135
-123.341897 -65.352863 1247.062810
-122.174786 -67.208622 1246.878809
-121.575936 -69.050968 1246.976836
-120.308855 -70.879329 1246.566905
-119.476443 -72.693142 1246.471848
-118.301478 -74.491840 1246.345557
-117.246434 -76.274853 1246.233694
-116.151571 -78.041607 1246.086335
-115.473500 -79.791549 1246.086582
-114.270759 -81.524105 1246.076442
-113.068981 -83.238708 1245.998885
-111.850528 -84.934788 1245.855080
-110.878937 -86.611782 1245.847088
-109.424877 -88.269119 1245.691599
-108.330171 -89.906235 1245.681840
-107.382900 -91.522564 1245.740136
-105.841228 -93.117531 1245.611190
-104.668137 -94.690578 1245.685089
-103.672503 -96.241131 1245.885887
-102.451143 -97.768627 1245.840197
-101.060249 -99.272499 1245.806182
-99.736916 -100.752174 1245.781519
-99.183506 -102.207092 1246.641312
-97.444854 -103.636684 1246.149731
-96.199652 -105.040378 1246.289121
-94.910088 -106.417610 1246.348108
-93.537979 -107.767814 1246.492735
-92.236583 -109.090423 1246.527640
-91.189723 -110.384867 1246.763373
-89.821649 -111.650579 1247.215172
-88.466052 -112.886995 1247.278967
-87.177259 -114.093544 1247.437663
-85.918358 -115.269661 1247.836832
-84.521095 -116.414779 1248.668226
-83.343023 -117.528330 1248.748008
-82.401429 -118.609745 1249.422591
-81.042501 -119.658459 1249.986086
-79.427074 -120.673906 1250.592317
-77.951675 -121.655515 1250.712786
-76.882366 -122.602722 1251.631087
-75.109791 -123.514957 1251.846565
-73.579411 -124.391657 1252.771119
-72.069068 -125.232250 1253.232821
-70.525224 -126.036171 1253.916161
-68.760494 -126.802852 1254.509493
-66.984578 -127.531728 1255.186545
-65.085124 -128.222229 1255.329669
-63.112324 -128.873790 1255.214284
-61.124647 -129.485841 1255.303932
-59.096523 -130.057817 1255.605168
-57.003071 -130.589150 1255.389186
-54.975037 -131.079274 1253.245654
-52.828046 -131.527620 1253.377606
-51.109181 -131.933621 1250.234271
