-45.0466 256.566 971.327
-45.4741 257.093 971.378
-45.9163 257.609 971.427
-46.3727 258.111 971.474
-46.8427 258.6 971.518
-47.3257 259.075 971.561
-47.821 259.536 971.601
-48.3281 259.982 971.639
-48.8463 260.413 971.674
-49.3749 260.829 971.708
-49.9134 261.229 971.739
-50.461 261.613 971.767
-51.017 261.981 971.794
-51.5809 262.333 971.818
-52.1519 262.668 971.839
-52.7293 262.986 971.859
-53.3125 263.287 971.876
-53.9007 263.571 971.891
-54.4934 263.838 971.903
-55.0898 264.088 971.913
-55.6894 264.321 971.921
-56.2917 264.537 971.927
-56.8962 264.737 971.931
-57.5024 264.921 971.933
-58.1099 265.089 971.932
-58.7181 265.241 971.93
-59.3268 265.378 971.925
-59.9355 265.501 971.919
-60.5439 265.609 971.911
-61.1515 265.703 971.902
-61.7581 265.783 971.89
-62.3633 265.849 971.877
-62.9669 265.903 971.863
-63.5685 265.944 971.847
-64.1679 265.973 971.829
-64.7649 265.989 971.81
-65.3593 265.995 971.79
-65.9508 265.989 971.768
-66.5393 265.972 971.746
-67.1246 265.945 971.722
-67.7066 265.908 971.697
-68.2851 265.862 971.67
-68.86 265.806 971.643
-69.4313 265.741 971.615
-69.9989 265.668 971.586
-70.5627 265.587 971.556
-71.1228 265.499 971.525
-71.679 265.403 971.494
-72.2314 265.3 971.461
-72.7797 265.191 971.428
-73.3237 265.076 971.395
-73.8632 264.956 971.361
-74.3982 264.832 971.327
-74.9285 264.704 971.292
-75.4541 264.572 971.257
-75.975 264.438 971.222
-76.4912 264.302 971.187
-77.0029 264.165 971.152
-77.5102 264.027 971.117
-78.0132 263.889 971.082
-78.5121 263.752 971.047
-79.0073 263.616 971.012
-79.499 263.482 970.978
-79.9876 263.35 970.945
-80.4735 263.222 970.912
-80.957 263.096 970.879
-81.4387 262.975 970.847
-81.919 262.857 970.815
-82.3982 262.742 970.784
-82.8769 262.629 970.753
-83.3553 262.517 970.722
-83.8338 262.407 970.691
-84.3125 262.297 970.661
-84.7918 262.187 970.63
-85.2718 262.076 970.6
-85.7527 261.964 970.569
-86.2345 261.851 970.538
-86.7174 261.734 970.506
-87.2014 261.615 970.474
-87.6866 261.493 970.442
-88.1731 261.368 970.409
-88.661 261.239 970.376
-89.1502 261.106 970.342
-89.6409 260.97 970.308
-90.1331 260.829 970.273
-90.6269 260.684 970.237
-91.1222 260.535 970.201
-91.619 260.381 970.164
-92.1174 260.222 970.127
-92.6174 260.058 970.089
-93.1188 259.888 970.05
-93.6218 259.713 970.01
-94.1262 259.532 969.97
-94.632 259.346 969.929
-95.1392 259.153 969.887
-95.6476 258.953 969.844
-96.1572 258.747 969.801
-96.6678 258.535 969.756
-97.1795 258.315 969.711
-97.692 258.088 969.664
-98.2053 257.854 969.617
-98.7192 257.612 969.569
-99.2335 257.363 969.519
-99.7482 257.106 969.469
-100.263 256.841 969.418
-100.778 256.567 969.366
-101.292 256.284 969.312
-101.804 255.992 969.258
-102.315 255.689 969.202
-102.822 255.376 969.145
-103.326 255.051 969.087
-103.825 254.714 969.027
-104.319 254.365 968.966
-104.807 254.003 968.904
-105.287 253.628 968.84
-105.759 253.24 968.775
-106.222 252.838 968.708
-106.674 252.423 968.64
-107.116 251.993 968.571
-107.545 251.549 968.501
-107.961 251.092 968.429
-108.362 250.62 968.356
-108.748 250.134 968.281
-109.117 249.634 968.206
-109.468 249.121 968.13
-109.8 248.594 968.052
-110.112 248.054 967.974
-110.403 247.501 967.894
-110.672 246.937 967.814
-110.92 246.362 967.734
-111.147 245.777 967.653
-111.354 245.184 967.571
-111.543 244.584 967.49
-111.712 243.978 967.408
-111.863 243.366 967.326
-111.998 242.75 967.245
-112.116 242.13 967.163
-112.218 241.508 967.082
-112.306 240.884 967.001
-112.381 240.258 966.92
-112.442 239.631 966.84
-112.492 239.005 966.76
-112.531 238.378 966.68
-112.56 237.751 966.601
-112.581 237.126 966.522
-112.594 236.501 966.443
-112.6 235.878 966.365
-112.601 235.256 966.287
-112.597 234.635 966.21
-112.59 234.015 966.133
-112.58 233.396 966.056
-112.566 232.778 965.979
-112.548 232.161 965.903
-112.526 231.544 965.826
-112.498 230.927 965.75
-112.463 230.31 965.675
-112.422 229.693 965.599
-112.374 229.076 965.524
-112.317 228.459 965.449
-112.252 227.843 965.374
-112.177 227.226 965.299
-112.093 226.61 965.225
-111.997 225.995 965.152
-111.89 225.38 965.079
-111.771 224.767 965.007
-111.639 224.155 964.935
-111.494 223.545 964.864
-111.335 222.938 964.793
-111.162 222.334 964.724
-110.973 221.733 964.656
-110.769 221.135 964.588
-110.549 220.543 964.522
-110.312 219.956 964.457
-110.058 219.374 964.393
-109.787 218.799 964.331
-109.498 218.232 964.27
-109.193 217.671 964.211
-108.872 217.119 964.153
-108.536 216.575 964.097
-108.184 216.039 964.043
-107.818 215.513 963.99
-107.437 214.996 963.939
-107.043 214.489 963.889
-106.636 213.992 963.841
-106.216 213.504 963.795
-105.783 213.028 963.751
-105.34 212.562 963.708
-104.885 212.107 963.668
-104.419 211.663 963.629
-103.944 211.23 963.591
-103.458 210.809 963.556
-102.964 210.399 963.522
-102.461 210 963.49
-101.95 209.613 963.459
-101.431 209.238 963.431
-100.905 208.874 963.404
-100.373 208.522 963.379
-99.8339 208.182 963.355
-99.2894 207.853 963.333
-98.7395 207.536 963.313
-98.1847 207.23 963.294
-97.6255 206.936 963.277
-97.0623 206.653 963.262
-96.4952 206.381 963.248
-95.9247 206.12 963.235
-95.351 205.87 963.224
-94.7744 205.632 963.215
-94.1952 205.404 963.207
-93.6135 205.188 963.2
-93.0298 204.982 963.195
-92.4441 204.788 963.191
-91.8569 204.604 963.189
-91.2683 204.431 963.188
-90.6785 204.268 963.189
-90.0878 204.116 963.19
-89.4964 203.974 963.194
-88.9045 203.842 963.198
-88.3123 203.721 963.204
-87.72 203.609 963.211
-87.1277 203.507 963.219
-86.5358 203.415 963.228
-85.9443 203.333 963.239
-85.3533 203.26 963.25
-84.7631 203.197 963.263
-84.1738 203.142 963.277
-83.5856 203.097 963.292
-82.9985 203.06 963.308
-82.4126 203.032 963.325
-81.8282 203.012 963.343
-81.2452 203.001 963.363
-80.6639 202.999 963.383
-80.0841 203.004 963.404
-79.5061 203.018 963.426
-78.9299 203.04 963.449
-78.3556 203.071 963.473
-77.7832 203.111 963.498
-77.213 203.16 963.524
-76.6449 203.218 963.552
-76.0793 203.285 963.58
-75.5162 203.361 963.609
-74.9557 203.447 963.64
-74.3982 203.543 963.671
-73.8436 203.648 963.704
-73.2924 203.763 963.738
-72.7446 203.888 963.773
-72.2005 204.023 963.809
-71.6603 204.169 963.846
-71.1244 204.324 963.884
-70.5928 204.49 963.924
-70.066 204.666 963.964
-69.5441 204.853 964.006
-69.0275 205.051 964.049
-68.5166 205.259 964.093
-68.0114 205.477 964.138
-67.5126 205.707 964.184
-67.0202 205.947 964.231
-66.5347 206.197 964.28
-66.0564 206.459 964.329
-65.5856 206.731 964.38
-65.1222 207.012 964.431
-64.6662 207.303 964.484
-64.2177 207.603 964.537
-63.7766 207.911 964.591
-63.3427 208.226 964.645
-62.916 208.549 964.701
-62.4963 208.878 964.757
-62.0835 209.213 964.813
-61.6773 209.553 964.87
-61.2776 209.899 964.927
-60.884 210.25 964.985
-60.4963 210.604 965.043
-60.1141 210.963 965.101
-59.7373 211.325 965.159
-59.3654 211.69 965.218
-58.998 212.058 965.277
-58.6348 212.429 965.336
-58.2754 212.801 965.395
-57.9193 213.176 965.455
-57.5661 213.552 965.514
-57.2154 213.93 965.574
-56.867 214.309 965.633
-56.5206 214.69 965.693
-56.1759 215.072 965.753
-55.8329 215.455 965.813
-55.4912 215.84 965.873
-55.1506 216.226 965.933
-54.8108 216.612 965.993
-54.4715 217 966.054
-54.1326 217.39 966.114
-53.7937 217.78 966.175
-53.4546 218.172 966.236
-53.1149 218.565 966.297
-52.7745 218.959 966.358
-52.433 219.355 966.42
-52.0901 219.753 966.481
-51.7457 220.152 966.543
-51.3994 220.554 966.606
-51.0509 220.957 966.668
-50.6999 221.363 966.731
-50.3463 221.771 966.795
-49.9897 222.182 966.859
-49.6299 222.595 966.923
-49.2666 223.012 966.988
-48.8996 223.432 967.053
-48.5287 223.856 967.119
-48.1542 224.284 967.186
-47.7771 224.716 967.253
-47.3981 225.155 967.321
-47.0181 225.599 967.39
-46.6382 226.051 967.46
-46.2591 226.509 967.53
-45.882 226.975 967.602
-45.5078 227.45 967.674
-45.1375 227.932 967.748
-44.7723 228.424 967.822
-44.4131 228.924 967.897
-44.061 229.433 967.973
-43.7172 229.951 968.05
-43.3827 230.478 968.127
-43.0585 231.013 968.206
-42.7457 231.558 968.285
-42.4448 232.112 968.365
-42.1568 232.675 968.445
-41.8823 233.247 968.526
-41.6224 233.828 968.608
-41.3777 234.418 968.69
-41.1491 235.018 968.773
-40.9375 235.626 968.857
-40.7438 236.243 968.94
-40.5688 236.868 969.025
-40.4135 237.502 969.109
-40.2786 238.143 969.194
-40.1652 238.792 969.279
-40.0741 239.449 969.365
-40.0057 240.112 969.45
-39.9597 240.78 969.535
-39.9355 241.452 969.62
-39.9327 242.126 969.704
-39.9508 242.802 969.788
-39.9891 243.478 969.871
-40.0469 244.153 969.953
-40.1239 244.826 970.034
-40.2198 245.497 970.115
-40.3348 246.164 970.194
-40.4685 246.829 970.272
-40.621 247.489 970.349
-40.7922 248.145 970.425
-40.9818 248.796 970.5
-41.1898 249.441 970.573
-41.416 250.08 970.645
-41.6602 250.712 970.716
-41.9222 251.338 970.784
-42.2019 251.956 970.852
-42.499 252.565 970.917
-42.8133 253.166 970.981
-43.1446 253.758 971.044
-43.4926 254.341 971.104
-43.8571 254.913 971.163
-44.2378 255.475 971.22
-44.6344 256.026 971.275
