-121.2  95.2534  138.03
-114.551  97.1092  138.03
-107.429  98.5841  138.03
-100.363  100.166  138.03
-93.856  102.559  138.03
-88.8978  106.683  138.03
-85.7748  112.105  138.03
-80.4411  116.736  138.03
-76.6  122.535  138.03
-74.4562  129.316  138.03
-75.0649  133.738  138.03
-76.3346  137.874  138.03
-78.3565  141.571  138.03
-80.622  145.349  138.03
-83.4673  148.38  138.03
-86.769  150.919  138.03
-90.3209  153.12  138.03
-94.1534  154.353  138.03
-98.1273  155.342  138.03
-102.138  155.524  138.03
-108.646  155.21  138.03
-114.753  153.04  138.03
-120.869  150.542  138.03
-127.059  148.175  138.03
-132.482  144.226  138.03
-136.836  139.098  138.03
-140.396  133.549  138.03
-143.528  127.91  138.03
-146.195  122.022  138.03
-147.447  115.58  138.03
-145.762  111.843  138.03
-143.653  108.147  138.03
-140.423  105.609  138.03
-136.459  104.486  138.03
-132.544  103.128  138.03
-128.417  102.693  138.03
-124.46  101.693  138.03
-123.671  98.1984  138.03
-122.513  94.3413  169.03
-114.982  95.1828  169.03
-107.382  97.4769  169.03
-100.996  99.8647  169.03
-95.6606  102.775  169.03
-90.4702  106.296  169.03
-87.2378  112.107  169.03
-82.56  117.961  169.03
-78.5849  124.511  169.03
-77.5305  132.39  169.03
-78.0485  136.925  169.03
-78.9874  141.303  169.03
-80.8852  145.43  169.03
-83.0502  149.107  169.03
-86.0147  152.444  169.03
-89.5565  155.408  169.03
-93.3164  157.816  169.03
-97.418  159.405  169.03
-101.677  160.07  169.03
-105.989  160.513  169.03
-112.049  159.798  169.03
-117.689  157.738  169.03
-122.953  154.675  169.03
-128.797  152.682  169.03
-133.947  150.031  169.03
-138.758  146.445  169.03
-143.125  142.009  169.03
-146.307  136.725  169.03
-148.688  131.023  169.03
-149.604  124.814  169.03
-149.31  119.264  169.03
-147.652  113.973  169.03
-145.102  108.711  169.03
-141.106  105.365  169.03
-136.359  103.148  169.03
-131.547  101.12  169.03
-126.574  99.5428  169.03
-124.88  94.917  169.03
-116.152  90.2535  200.03
-109.943  89.4761  200.03
-103.8  92.5545  200.03
-98.9628  96.8573  200.03
-92.3478  101.681  200.03
-89.1045  107.651  200.03
-85.1441  113.314  200.03
-80.6269  119.013  200.03
-77.3398  125.5  200.03
-75.9946  132.761  200.03
-76.0953  137.449  200.03
-77.252  142.086  200.03
-79.0027  146.753  200.03
-81.9798  150.885  200.03
-85.3756  154.716  200.03
-89.1136  158.118  200.03
-93.4451  160.829  200.03
-97.9944  162.949  200.03
-102.788  164.237  200.03
-107.664  164.751  200.03
-114.005  163.38  200.03
-120.296  161.268  200.03
-126.924  159.272  200.03
-133.469  157.166  200.03
-139.401  154.191  200.03
-144.704  150.054  200.03
-149.117  144.813  200.03
-152.024  138.741  200.03
-153.48  132.262  200.03
-153.776  125.234  200.03
-152.682  118.471  200.03
-150.422  111.977  200.03
-146.98  106.095  200.03
-142.167  101.737  200.03
-136.449  98.6379  200.03
-131.255  95.2294  200.03
-127.323  91.2304  200.03
-121.868  88.758  200.03
-117.367  81.9249  231.03
-109.326  83.1729  231.03
-101.981  86.3235  231.03
-95.0995  91.0684  231.03
-89.7938  97.1681  231.03
-86.4721  104.506  231.03
-82.3408  111.665  231.03
-78.0002  118.475  231.03
-74.714  125.781  231.03
-73.1422  133.706  231.03
-73.9112  139.499  231.03
-75.6896  145.07  231.03
-78.5824  150.388  231.03
-81.9703  155.358  231.03
-86.2055  159.279  231.03
-91.055  162.521  231.03
-96.1814  165.382  231.03
-101.612  167.272  231.03
-107.302  168.291  231.03
-112.984  168.402  231.03
-119.578  167.741  231.03
-125.809  165.782  231.03
-131.781  163.398  231.03
-138  161.349  231.03
-144.008  158.366  231.03
-149.01  154.111  231.03
-152.827  148.831  231.03
-156.106  142.91  231.03
-158.605  136.765  231.03
-158.43  130.294  231.03
-158.74  122.497  231.03
-157.512  114.86  231.03
-154.557  107.311  231.03
-150.049  100.428  231.03
-144.355  94.631  231.03
-137.501  90.5418  231.03
-131.099  86.9173  231.03
-124.785  82.7278  231.03
-123.589  74.8036  262.03
-114.151  76.277  262.03
-105.542  79.7391  262.03
-97.4895  84.738  262.03
-90.2783  91.1741  262.03
-86.0189  98.8434  262.03
-82.0929  106.424  262.03
-77.5554  114.54  262.03
-73.499  122.968  262.03
-71.5025  131.973  262.03
-71.7525  138.42  262.03
-72.9265  144.69  262.03
-75.9518  150.411  262.03
-79.9266  155.743  262.03
-84.3697  160.684  262.03
-89.4666  164.743  262.03
-95.2907  167.689  262.03
-101.354  169.935  262.03
-107.526  171.322  262.03
-113.54  171.6  262.03
-121.305  170.699  262.03
-128.588  167.912  262.03
-136.287  165.624  262.03
-143.828  163.153  262.03
-150.601  158.789  262.03
-156.216  152.835  262.03
-160.492  146.139  262.03
-163.491  138.678  262.03
-165.78  130.914  262.03
-166.204  122.729  262.03
-165.288  115.4  262.03
-163.178  108.162  262.03
-160.186  101.145  262.03
-155.7  94.588  262.03
-149.966  88.8118  262.03
-143.668  84.3433  262.03
-137.351  80.5495  262.03
-130.977  77.0641  262.03
-121.66  72.0348  293.03
-111.818  72.958  293.03
-102.586  76.8888  293.03
-94.9326  83.0249  293.03
-89.0943  90.8021  293.03
-84.9235  99.175  293.03
-80.5908  107.177  293.03
-75.3762  115.395  293.03
-71.2227  124.303  293.03
-69.1585  133.892  293.03
-70.7353  140.727  293.03
-72.3291  147.378  293.03
-75.1406  153.562  293.03
-79.6258  158.944  293.03
-84.7188  163.595  293.03
-90.3122  167.37  293.03
-96.5718  170.112  293.03
-103.055  171.928  293.03
-109.723  173.03  293.03
-116.534  173.41  293.03
-124.554  172.346  293.03
-132.292  169.773  293.03
-140.203  167.165  293.03
-147.855  164.435  293.03
-154.429  159.998  293.03
-160.178  154.113  293.03
-165.172  147.398  293.03
-168.722  139.922  293.03
-170.777  132.171  293.03
-171.407  123.767  293.03
-170.436  114.992  293.03
-168.036  106.442  293.03
-163.926  98.6655  293.03
-158.443  92.0499  293.03
-152.246  86.366  293.03
-145.141  81.2435  293.03
-137.983  76.7062  293.03
-130.208  73.3427  293.03
-121.303  71.0555  324.03
-110.927  72.4656  324.03
-102  76.6766  324.03
-93.4433  82.497  324.03
-86.3205  89.681  324.03
-83.351  98.8524  324.03
-78.7413  107.371  324.03
-73.2879  115.616  324.03
-69.6114  124.812  324.03
-68.2728  134.675  324.03
-69.0226  141.482  324.03
-71.2076  148.19  324.03
-74.72  154.373  324.03
-79.3708  159.528  324.03
-84.6399  164.131  324.03
-90.4425  167.881  324.03
-96.8003  170.457  324.03
-103.421  172.405  324.03
-110.184  173.179  324.03
-117.029  173.224  324.03
-125.055  172.419  324.03
-132.468  169.653  324.03
-140.108  167.388  324.03
-147.637  164.398  324.03
-154.427  159.886  324.03
-160.332  154.183  324.03
-165.242  147.681  324.03
-168.896  140.316  324.03
-171.457  132.533  324.03
-172.481  124.367  324.03
-171.655  115.287  324.03
-169.267  106.456  324.03
-165.288  98.263  324.03
-159.683  91.2701  324.03
-152.748  85.7579  324.03
-145.129  81.3163  324.03
-137.6  76.6969  324.03
-130.118  72.3454  324.03
-120.112  71.6148  336.78
-110.418  72.7339  336.78
-101.771  76.9973  336.78
-93.2466  82.5174  336.78
-85.8885  89.1594  336.78
-82.7202  97.3553  336.78
-78.0728  105.38  336.78
-72.4545  113.259  336.78
-68.6575  122.213  336.78
-66.6145  131.734  336.78
-67.55  138.961  336.78
-69.7795  146.037  336.78
-72.9717  152.552  336.78
-77.5646  157.948  336.78
-83.0073  162.793  336.78
-89.0062  166.947  336.78
-95.5097  170.001  336.78
-102.431  172.069  336.78
-109.534  173.117  336.78
-116.69  173.139  336.78
-124.528  172.026  336.78
-132.129  169.321  336.78
-140.082  166.943  336.78
-147.384  163.566  336.78
-154.022  158.957  336.78
-159.778  153.211  336.78
-164.487  146.58  336.78
-168.104  139.325  336.78
-170.161  131.358  336.78
-171.281  123.322  336.78
-170.327  114.279  336.78
-167.771  105.637  336.78
-163.768  97.4198  336.78
-158.151  90.5267  336.78
-150.999  85.5604  336.78
-143.493  80.8753  336.78
-136.613  75.6592  336.78
-128.695  72.1086  336.78
-118.255  71.1233  349.53
-108.71  73.1885  349.53
-100.019  76.8154  349.53
-91.4415  81.8807  349.53
-84.2682  88.3526  349.53
-80.8221  96.5386  349.53
-76.0849  104.485  349.53
-70.7545  112.256  349.53
-67.1262  120.937  349.53
-65.3409  130.221  349.53
-65.4696  137.456  349.53
-67.6523  144.536  349.53
-71.4674  150.898  349.53
-76.1301  156.551  349.53
-81.5314  161.494  349.53
-87.6027  165.609  349.53
-94.1984  168.749  349.53
-101.139  170.932  349.53
-108.407  172.561  349.53
-115.688  172.7  349.53
-123.623  171.253  349.53
-130.755  168.102  349.53
-138.427  166.145  349.53
-145.953  162.815  349.53
-152.729  158.15  349.53
-158.433  152.215  349.53
-162.999  145.203  349.53
-166.467  137.669  349.53
-168.404  129.558  349.53
-168.652  121.082  349.53
-168.137  112.465  349.53
-165.514  103.939  349.53
-161.283  96.1935  349.53
-155.581  89.6625  349.53
-148.647  84.4311  349.53
-141.188  80.5275  349.53
-134.721  75.4247  349.53
-127.188  71.7908  349.53
-115.618  71.6061  362.28
-105.824  73.0243  362.28
-96.5502  76.2498  362.28
-87.8012  81.1004  362.28
-81.3162  88.1606  362.28
-77.3794  96.7326  362.28
-71.6588  104.497  362.28
-67.213  112.947  362.28
-64.109  121.787  362.28
-62.9634  131.124  362.28
-63.784  138.17  362.28
-66.9311  144.662  362.28
-70.9496  150.54  362.28
-75.6631  155.903  362.28
-81.0435  160.64  362.28
-87.046  164.508  362.28
-93.5608  167.356  362.28
-100.396  169.386  362.28
-107.464  170.494  362.28
-114.775  171.109  362.28
-122.382  169.554  362.28
-129.793  166.863  362.28
-137.227  164.145  362.28
-144.322  161.188  362.28
-150.868  156.815  362.28
-156.324  151.017  362.28
-160.516  144.264  362.28
-163.804  136.915  362.28
-165.706  129.149  362.28
-166.054  121.023  362.28
-165.267  112.137  362.28
-163.081  103.714  362.28
-159.072  95.6027  362.28
-153.376  89.0101  362.28
-146.063  84.6203  362.28
-138.545  80.39  362.28
-129.913  78.1478  362.28
-122.394  75.0762  362.28
-109.548  69.6595  375.03
-100.22  70.5686  375.03
-90.7944  73.4893  375.03
-82.5038  78.8229  375.03
-76.7924  86.1369  375.03
-72.9454  94.5381  375.03
-67.8339  102.696  375.03
-63.8486  111.486  375.03
-61.1499  120.631  375.03
-59.7245  130.024  375.03
-61.4688  137.208  375.03
-64.4301  143.834  375.03
-68.7105  149.514  375.03
-73.7286  154.545  375.03
-79.3568  158.92  375.03
-85.4902  162.578  375.03
-92.0452  165.438  375.03
-99.0192  167.389  375.03
-106.055  168.393  375.03
-113.07  169.092  375.03
-120.391  167.146  375.03
-127.637  164.612  375.03
-134.755  162.111  375.03
-141.801  159.534  375.03
-147.998  155.079  375.03
-153.289  149.301  375.03
-157.607  142.929  375.03
-160.493  135.525  375.03
-162.196  127.781  375.03
-162.685  119.886  375.03
-162.189  110.736  375.03
-159.848  101.891  375.03
-155.573  93.5175  375.03
-149.539  87.0082  375.03
-141.661  83.0019  375.03
-133.537  79.3703  375.03
-124.898  76.5954  375.03
-116.011  75.0692  375.03
-96.5161  63.91  392.03
-88.1862  65.9887  392.03
-80.2631  69.6248  392.03
-73.9378  75.3556  392.03
-69.0685  82.3141  392.03
-63.7508  89.328  392.03
-59.5294  97.28  392.03
-56.0779  104.557  392.03
-52.7979  112.08  392.03
-49.8174  120.051  392.03
-51.0733  127.746  392.03
-53.5924  134.882  392.03
-57.8587  141.414  392.03
-63.2082  146.886  392.03
-69.2432  151.615  392.03
-75.7371  155.893  392.03
-82.6193  159.681  392.03
-90.0273  162.75  392.03
-97.8541  164.77  392.03
-105.897  165.444  392.03
-114.014  163.836  392.03
-122.26  162.232  392.03
-130.112  160.305  392.03
-137.326  156.706  392.03
-143.772  151.335  392.03
-149.282  145.122  392.03
-153.753  138.296  392.03
-156.912  130.383  392.03
-157.552  122.261  392.03
-156.294  114.471  392.03
-157.392  105.937  392.03
-154.208  96.3909  392.03
-148.844  88.4617  392.03
-140.915  82.6897  392.03
-132.689  77.6086  392.03
-124.086  72.5664  392.03
-114.802  69.1209  392.03
-105.656  66.2471  392.03
-85.9147  57.8198  409.03
-78.4494  61.9995  409.03
-72.2741  67.531  409.03
-67.2634  74.0469  409.03
-61.6756  80.584  409.03
-55.8716  87.3394  409.03
-49.7028  93.0434  409.03
-43.622  98.9519  409.03
-39.1298  106.159  409.03
-37.3231  114.5  409.03
-38.0843  123.357  409.03
-40.5818  131.691  409.03
-45.1986  138.815  409.03
-51.2603  144.743  409.03
-58.346  149.219  409.03
-66.0375  152.509  409.03
-73.8734  155.711  409.03
-81.9886  159.05  409.03
-90.5756  161.291  409.03
-99.425  161.748  409.03
-108.031  161.006  409.03
-116.325  160.066  409.03
-124.423  158.112  409.03
-131.897  154.396  409.03
-138.135  148.364  409.03
-143.253  141.082  409.03
-147.151  133.425  409.03
-149.193  125.068  409.03
-150.148  116.388  409.03
-150.758  107.872  409.03
-149.701  97.6439  409.03
-145.324  89.32  409.03
-137.468  83.1354  409.03
-129.801  76.983  409.03
-122.23  70.4147  409.03
-114.016  65.1033  409.03
-105.012  60.7256  409.03
-95.2226  60.125  409.03
-93.076  52.2039  432.947
-82.1833  52.5754  432.947
-72.3719  56.2679  432.947
-65.4232  65.1779  432.947
-59.4303  74.3002  432.947
-51.6512  82.8391  432.947
-42.8308  89.1012  432.947
-33.9285  95.5528  432.947
-29.0831  105.312  432.947
-28.0079  116.618  432.947
-30.1395  125.571  432.947
-33.8383  133.944  432.947
-39.4028  140.905  432.947
-46.5537  146.185  432.947
-54.6695  149.781  432.947
-63.155  152.167  432.947
-71.7121  154.32  432.947
-80.6627  156.268  432.947
-89.8011  157.635  432.947
-98.7396  157.993  432.947
-106.513  157.175  432.947
-114.106  155.728  432.947
-121.439  153.214  432.947
-128.077  149.017  432.947
-133.236  143.118  432.947
-137.171  136.172  432.947
-140.365  128.805  432.947
-142.643  121.086  432.947
-143.221  113.116  432.947
-143.991  105.225  432.947
-142.659  96.5603  432.947
-138.846  88.7333  432.947
-133.534  81.5668  432.947
-128.192  74.7119  432.947
-123.327  67.6418  432.947
-117.491  61.1266  432.947
-110.167  56.2082  432.947
-101.866  52.8733  432.947
-94.1255  49.3654  456.863
-82.5574  50.1357  456.863
-71.5795  52.0228  456.863
-63.352  59.4922  456.863
-56.491  68.4663  456.863
-47.715  76.5969  456.863
-39.8584  84.6106  456.863
-32.5311  93.2646  456.863
-27.4903  103.66  456.863
-25.8282  115.244  456.863
-27.0525  124.037  456.863
-30.7626  132.201  456.863
-36.4945  138.759  456.863
-43.6932  143.479  456.863
-51.6172  146.966  456.863
-59.7606  149.764  456.863
-68.0922  151.979  456.863
-76.7947  153.784  456.863
-85.5826  155.259  456.863
-94.217  156.227  456.863
-101.284  155.712  456.863
-108.249  154.097  456.863
-114.92  151.502  456.863
-121.073  147.826  456.863
-126.543  142.831  456.863
-130.92  136.906  456.863
-134.216  130.508  456.863
-137.115  123.7  456.863
-139.153  116.575  456.863
-139.393  109.399  456.863
-139.086  100.1  456.863
-136.507  91.4216  456.863
-132.635  82.9745  456.863
-128.145  74.8028  456.863
-123.588  67.095  456.863
-118.719  59.9649  456.863
-111.719  54.3506  456.863
-103.155  50.5584  456.863
-87.3059  51.3113  480.78
-77.134  52.4577  480.78
-67.8134  53.8217  480.78
-59.9451  61.1021  480.78
-52.2241  68.3652  480.78
-43.7028  75.4228  480.78
-36.3768  83.1681  480.78
-29.9267  91.6095  480.78
-25.8644  101.495  480.78
-24.102  112.154  480.78
-25.501  120.352  480.78
-28.3052  128.037  480.78
-32.8038  134.645  480.78
-38.3934  140.335  480.78
-44.7556  145.021  480.78
-51.6716  148.882  480.78
-58.981  152.204  480.78
-66.6208  154.684  480.78
-74.6469  156.264  480.78
-82.5823  157.793  480.78
-91.3396  157.451  480.78
-99.775  155.927  480.78
-107.946  152.959  480.78
-115.671  149.137  480.78
-121.966  143.396  480.78
-126.777  136.263  480.78
-130.829  128.611  480.78
-134.645  120.74  480.78
-136.216  112.397  480.78
-136.791  104.982  480.78
-135.063  96.0285  480.78
-132.537  87.3923  480.78
-128.872  79.1833  480.78
-124.912  71.0493  480.78
-120.165  63.6334  480.78
-112.857  58.0687  480.78
-104.902  53.3977  480.78
-96.3132  51.2605  480.78
-94.3208  51.7236  504.697
-83.2538  53.3412  504.697
-71.5795  53.0192  504.697
-62.2321  55.5841  504.697
-55.0071  63.7014  504.697
-45.5733  70.2947  504.697
-37.7694  78.7052  504.697
-30.8162  87.5518  504.697
-25.8198  97.5215  504.697
-23.6794  108.712  504.697
-23.7391  116.787  504.697
-25.8154  124.876  504.697
-28.8394  132.597  504.697
-33.0063  139.816  504.697
-38.4544  145.824  504.697
-44.8567  150.76  504.697
-51.8263  154.895  504.697
-59.2917  157.901  504.697
-67.146  159.739  504.697
-75.1267  160.15  504.697
-84.4194  159.58  504.697
-93.5759  157.325  504.697
-102.823  154.508  504.697
-111.362  150.483  504.697
-119.321  145.161  504.697
-125.685  138.133  504.697
-130.097  129.647  504.697
-133.652  120.861  504.697
-136.653  112.022  504.697
-137.955  102.785  504.697
-137.029  94.7328  504.697
-134.659  87.1369  504.697
-131.524  79.6349  504.697
-128.055  72.3925  504.697
-123.332  65.8997  504.697
-116.873  60.989  504.697
-109.8  56.8146  504.697
-102.289  53.8718  504.697
-89.811  51.0464  528.613
-78.383  52.7466  528.613
-67.4312  53.9073  528.613
-57.7177  57.3745  528.613
-48.4275  64.3179  528.613
-39.021  71.5182  528.613
-31.3159  80.2618  528.613
-25.3715  90.1669  528.613
-20.9059  100.844  528.613
-20.0119  112.542  528.613
-19.7437  120.413  528.613
-22.0284  128.306  528.613
-25.2973  135.827  528.613
-29.4873  142.921  528.613
-34.7287  149.147  528.613
-40.88  154.372  528.613
-47.7146  158.575  528.613
-55.1018  161.594  528.613
-62.8326  163.183  528.613
-70.7928  164.619  528.613
-80.7749  163.262  528.613
-90.3835  160.421  528.613
-99.7524  156.611  528.613
-109.211  152.717  528.613
-117.817  147.304  528.613
-125.944  141.212  528.613
-133.234  134.398  528.613
-138.685  125.89  528.613
-142.516  116.477  528.613
-143.463  106.122  528.613
-140.477  97.3244  528.613
-138.344  88.331  528.613
-134.836  79.6852  528.613
-130.448  71.2799  528.613
-123.939  64.6349  528.613
-116.315  59.2387  528.613
-107.975  55.0723  528.613
-99.0765  52.6482  528.613
-90.4743  46.6432  552.53
-78.7245  49.6814  552.53
-66.5784  51.9074  552.53
-54.9874  56.4984  552.53
-44.342  63.1106  552.53
-35.0814  71.2287  552.53
-27.1141  80.4177  552.53
-20.4727  90.5203  552.53
-16.0775  101.755  552.53
-14.1058  113.761  552.53
-14.9835  122.353  552.53
-17.39  130.775  552.53
-21.1461  138.776  552.53
-26.1849  145.766  552.53
-32.24  151.886  552.53
-39.1091  157.072  552.53
-46.6213  161.2  552.53
-54.5859  164.307  552.53
-62.9386  165.988  552.53
-71.4488  166.686  552.53
-81.6427  165.536  552.53
-91.3661  162.33  552.53
-100.713  158.105  552.53
-109.966  153.762  552.53
-118.879  148.701  552.53
-127.241  142.749  552.53
-134.712  135.779  552.53
-140.789  127.593  552.53
-144.886  118.105  552.53
-145.963  108.004  552.53
-144.325  98.2044  552.53
-141.789  88.4638  552.53
-138.248  78.8761  552.53
-133.107  70.0442  552.53
-126.373  62.7374  552.53
-118.251  56.9543  552.53
-109.438  52.3729  552.53
-99.9775  49.5564  552.53
-89.9331  43.1562  576.447
-77.4173  45.4545  576.447
-64.891  48.3477  576.447
-52.8858  53.4269  576.447
-42.134  60.7199  576.447
-32.6123  69.6299  576.447
-23.8821  78.8378  576.447
-17.4772  89.6478  576.447
-12.2465  101.091  576.447
-9.53365  113.448  576.447
-10.0793  122.693  576.447
-12.331  131.714  576.447
-16.533  140.259  576.447
-21.9316  147.869  576.447
-28.473  154.32  576.447
-35.944  159.842  576.447
-44.1008  164.233  576.447
-52.9034  166.191  576.447
-62.0271  166.237  576.447
-71.2857  167.551  576.447
-82.0972  167.439  576.447
-91.8656  163.751  576.447
-101.377  158.542  576.447
-111.388  154.422  576.447
-120.836  149.201  576.447
-129.473  142.776  576.447
-137.04  135.198  576.447
-143.026  126.204  576.447
-146.894  116.052  576.447
-147.772  104.961  576.447
-145.523  95.1764  576.447
-143.002  85.2046  576.447
-139.32  75.574  576.447
-134.336  66.3637  576.447
-127.254  58.6771  576.447
-118.699  53.1505  576.447
-109.455  48.299  576.447
-99.7757  44.9889  576.447
-90.2596  38.3138  600.363
-76.9136  41.064  600.363
-63.4408  44.2084  600.363
-51.0987  50.1971  600.363
-40.3654  58.8159  600.363
-30.4546  68.2867  600.363
-21.6356  78.7257  600.363
-14.5659  90.3812  600.363
-9.72637  103.089  600.363
-8.19012  116.647  600.363
-8.37777  124.525  600.363
-10.4693  132.541  600.363
-13.8996  140.264  600.363
-18.3733  147.493  600.363
-23.7339  154.012  600.363
-30.0371  159.416  600.363
-37.2231  163.464  600.363
-44.8575  166.476  600.363
-52.6704  169.334  600.363
-60.7444  171.448  600.363
-72.3972  170.09  600.363
-83.9692  168.373  600.363
-95.1966  164.788  600.363
-106.15  159.829  600.363
-116.571  153.932  600.363
-126.244  147.225  600.363
-134.87  139.43  600.363
-142.057  130.19  600.363
-147.407  119.751  600.363
-149.459  108.006  600.363
-147.821  97.0807  600.363
-144.611  86.5854  600.363
-141.432  76.0765  600.363
-136.659  66.0726  600.363
-129.605  57.2394  600.363
-121.187  49.6186  600.363
-111.422  44.5109  600.363
-100.807  41.1283  600.363
-88.4596  34.596  624.28
-74.8795  36.6825  624.28
-61.4279  40.0727  624.28
-48.8687  46.0163  624.28
-38.1715  54.6958  624.28
-29.0559  65.0902  624.28
-20.4397  75.9659  624.28
-13.6064  87.6597  624.28
-8.0596  100.031  624.28
-4.76783  113.036  624.28
-5.45994  123.047  624.28
-8.07482  132.864  624.28
-12.3089  142.151  624.28
-18.1875  150.583  624.28
-25.2509  158.017  624.28
-33.5029  163.731  624.28
-42.8623  167.244  624.28
-52.5895  169.22  624.28
-62.5102  170.758  624.28
-72.6886  172.194  624.28
-82.6521  169.108  624.28
-93.7722  167.277  624.28
-103.68  162.786  624.28
-113.352  157.485  624.28
-122.601  151.236  624.28
-131.021  144.06  624.28
-138.279  135.884  624.28
-144.167  126.516  624.28
-148.447  116.364  624.28
-149.243  105.365  624.28
-147.294  94.2521  624.28
-144.226  83.3187  624.28
-140.875  72.4229  624.28
-135.848  62.1719  624.28
-129.393  52.8275  624.28
-120.636  45.534  624.28
-110.599  39.8168  624.28
-99.7859  36.6133  624.28
-87.3587  30.8863  648.197
-73.2066  32.1493  648.197
-59.461  36.2067  648.197
-46.6862  42.5684  648.197
-35.709  51.7302  648.197
-26.5364  62.7818  648.197
-18.9288  74.9405  648.197
-12.2642  87.4596  648.197
-6.44131  100.173  648.197
-4.94055  114.152  648.197
-5.29713  122.268  648.197
-6.79531  130.252  648.197
-9.39385  137.988  648.197
-13.309  145.362  648.197
-18.6103  151.593  648.197
-24.7067  157.133  648.197
-31.2091  162.219  648.197
-38.4294  165.941  648.197
-46.2021  168.201  648.197
-54.1206  169.917  648.197
-67.1698  171.669  648.197
-80.3327  170.832  648.197
-93.2335  167.971  648.197
-105.509  163.374  648.197
-117.06  156.69  648.197
-127.679  148.652  648.197
-136.846  139.402  648.197
-143.912  128.181  648.197
-148.859  115.957  648.197
-150.494  102.697  648.197
-146.949  91.9454  648.197
-144.906  80.2498  648.197
-140.928  69.1298  648.197
-136.018  58.5531  648.197
-129.402  48.904  648.197
-120.587  40.961  648.197
-110.213  35.081  648.197
-98.9603  31.7083  648.197
-71.5569  29.185  672.113
-58.9497  32.7438  672.113
-47.3189  38.7144  672.113
-36.7115  46.501  672.113
-27.3888  55.9031  672.113
-19.7266  66.5573  672.113
-13.9552  78.2  672.113
-8.5868  90.1883  672.113
-4.96751  102.609  672.113
-2.58914  115.195  672.113
-3.69677  124.759  672.113
-6.54871  134.029  672.113
-10.995  142.785  672.113
-16.7217  150.527  672.113
-23.8552  157.093  672.113
-31.9806  162.481  672.113
-40.6459  166.569  672.113
-49.9247  168.981  672.113
-59.4349  170.204  672.113
-69.1345  171.519  672.113
-80.3641  169.966  672.113
-92.09  167.925  672.113
-103.491  164.325  672.113
-114.089  158.878  672.113
-123.9  152.365  672.113
-132.636  144.607  672.113
-139.904  135.39  672.113
-145.414  124.972  672.113
-149.089  113.815  672.113
-149.782  102.093  672.113
-146.458  89.1219  672.113
-143.097  75.9966  672.113
-138.691  63.1812  672.113
-131.695  51.5914  672.113
-122.394  41.6912  672.113
-111.128  33.7826  672.113
-98.3407  28.8425  672.113
-84.8593  27.471  672.113
-57.3205  31.1529  696.03
-47.9615  37.0003  696.03
-38.5125  43.1963  696.03
-30.2484  50.8244  696.03
-23.3194  59.7228  696.03
-17.0318  68.9836  696.03
-12.0545  78.9887  696.03
-8.81769  89.6085  696.03
-5.12755  99.7073  696.03
-4.85619  110.556  696.03
-4.86999  119.787  696.03
-6.37147  129.189  696.03
-10.3441  138.426  696.03
-15.7223  146.568  696.03
-22.4772  154.041  696.03
-30.2699  159.805  696.03
-38.8381  163.792  696.03
-48.1207  167.453  696.03
-57.2474  168.565  696.03
-65.9958  167.158  696.03
-78.903  167.175  696.03
-91.6368  165.356  696.03
-104.428  162.624  696.03
-116.46  157.476  696.03
-127.589  150.362  696.03
-137.123  141.573  696.03
-145.057  131.262  696.03
-151.51  119.728  696.03
-154.635  107.738  696.03
-155.258  94.7856  696.03
-151.87  81.1987  696.03
-147.41  66.3901  696.03
-139.862  53.0027  696.03
-129.227  42.1387  696.03
-115.872  33.6053  696.03
-101.852  26.8839  696.03
-86.7353  23.1797  696.03
-71.3459  24.7575  696.03
