-101.516000 94.121600 116.624000
-121.200000 95.253400 138.030000
-122.513000 94.341300 169.030000
-116.152000 90.253500 200.030000
-117.367000 81.924900 231.030000
-123.589000 74.803600 262.030000
-121.660000 72.034800 293.030000
-121.303000 71.055500 324.030000
-120.112000 71.614800 336.780000
-118.255000 71.123300 349.530000
-115.618000 71.606100 362.280000
-109.548000 69.659500 375.030000
-96.516100 63.910000 392.030000
-85.914700 57.819800 409.030000
-93.076000 52.203900 432.947000
-94.125500 49.365400 456.863000
-87.305900 51.311300 480.780000
-94.320800 51.723600 504.697000
-89.811000 51.046400 528.613000
-90.474300 46.643200 552.530000
-89.933100 43.156200 576.447000
-90.259600 38.313800 600.363000
-88.459600 34.596000 624.280000
-87.358700 30.886300 648.197000
-71.556900 29.185000 672.113000
s
-66.387300 125.953000 116.624000
-74.456200 129.316000 138.030000
-77.530500 132.390000 169.030000
-75.994600 132.761000 200.030000
-73.142200 133.706000 231.030000
-71.502500 131.973000 262.030000
-69.158500 133.892000 293.030000
-68.272800 134.675000 324.030000
-66.614500 131.734000 336.780000
-65.340900 130.221000 349.530000
-62.963400 131.124000 362.280000
-59.724500 130.024000 375.030000
-49.817400 120.051000 392.030000
-37.323100 114.500000 409.030000
-28.007900 116.618000 432.947000
-25.828200 115.244000 456.863000
-24.102000 112.154000 480.780000
-23.679400 108.712000 504.697000
-20.011900 112.542000 528.613000
-14.105800 113.761000 552.530000
-9.533650 113.448000 576.447000
-8.190120 116.647000 600.363000
-4.767830 113.036000 624.280000
-4.940550 114.152000 648.197000
-2.589140 115.195000 672.113000
s
-100.867000 158.461000 116.624000
-102.138000 155.524000 138.030000
-105.989000 160.513000 169.030000
-107.664000 164.751000 200.030000
-112.984000 168.402000 231.030000
-113.540000 171.600000 262.030000
-116.534000 173.410000 293.030000
-117.029000 173.224000 324.030000
-116.690000 173.139000 336.780000
-115.688000 172.700000 349.530000
-114.775000 171.109000 362.280000
-113.070000 169.092000 375.030000
-105.897000 165.444000 392.030000
-99.425000 161.748000 409.030000
-98.739600 157.993000 432.947000
-94.217000 156.227000 456.863000
-82.582300 157.793000 480.780000
-75.126700 160.150000 504.697000
-70.792800 164.619000 528.613000
-71.448800 166.686000 552.530000
-71.285700 167.551000 576.447000
-60.744400 171.448000 600.363000
-72.688600 172.194000 624.280000
-54.120600 169.917000 648.197000
-69.134500 171.519000 672.113000
s
-149.372000 114.458000 116.624000
-147.447000 115.580000 138.030000
-149.604000 124.814000 169.030000
-153.776000 125.234000 200.030000
-158.430000 130.294000 231.030000
-166.204000 122.729000 262.030000
-171.407000 123.767000 293.030000
-172.481000 124.367000 324.030000
-171.281000 123.322000 336.780000
-168.652000 121.082000 349.530000
-166.054000 121.023000 362.280000
-162.685000 119.886000 375.030000
-156.294000 114.471000 392.030000
-150.758000 107.872000 409.030000
-143.991000 105.225000 432.947000
-139.393000 109.399000 456.863000
-136.791000 104.982000 480.780000
-137.955000 102.785000 504.697000
-143.463000 106.122000 528.613000
-145.963000 108.004000 552.530000
-147.772000 104.961000 576.447000
-149.459000 108.006000 600.363000
-149.243000 105.365000 624.280000
-150.494000 102.697000 648.197000
-149.782000 102.093000 672.113000
s
