-17.6288  271.827  753.543
-14.0239  265.543  753.51
-11.9962  258.499  753.184
-11.8675  251.301  752.57
-14.4814  244.585  751.602
-19.9229  239.738  750.391
-27.2856  238.634  749.232
-34.7002  237.632  748.075
-41.7045  238.731  747.161
-47.9232  242.925  746.632
-53.2401  248.152  746.325
-57.2961  254.814  746.325
-59.0398  262.489  746.748
-57.3443  270.298  747.679
-53.961  277.369  748.788
-48.9611  283.535  750.052
-42.0894  286.417  751.296
-34.5666  286.262  752.368
-28.2727  282.409  752.937
-22.6961  277.393  753.301
-6.69623  255.995  724.151
-5.98262  245.761  723.623
-7.94577  235.701  722.85
-13.0419  227.216  721.869
-21.9699  222.003  720.712
-31.3832  217.904  719.574
-37.6887  222.864  719.26
-43.444  228.405  719.033
-47.9896  235.014  718.983
-52.5011  241.644  718.938
-56.9966  248.287  718.895
-61.4454  256.45  718.945
-61.7548  265.83  719.462
-56.9715  273.774  720.381
-49.795  279.85  721.421
-41.2641  283.741  722.463
-31.845  282.282  723.278
-23.0279  278.549  723.903
-15.5628  272.636  724.273
-9.89204  264.918  724.365
-5.92211  264.087  695.047
-0.173178  254.339  695.038
3.00892  243.53  694.876
1.83099  232.33  694.497
-1.59753  221.53  694.021
-5.08184  210.745  693.544
-15.2246  207.107  692.957
-25.4449  207.147  692.473
-34.2531  213.567  692.24
-39.6547  222.827  692.251
-44.4635  232.566  692.305
-48.6783  241.104  692.352
-52.9163  249.639  692.397
-57.0091  258.196  692.451
-60.5449  266.863  692.533
-58.3937  276.102  692.903
-48.0159  282.348  693.576
-36.2292  283.068  694.157
-24.914  278.686  694.568
-14.5253  272.618  694.885
7.5884  248.524  665.6
8.81059  235.627  665.6
4.50873  223.088  665.6
-0.943977  210.907  665.6
-6.76461  199.069  665.6
-18.5655  193.079  665.6
-27.4208  197.536  665.6
-31.7561  206.318  665.6
-35.5512  215.542  665.6
-39.2586  224.838  665.6
-43.0073  234.1  665.6
-47.4628  245.113  665.6
-51.8604  256.153  665.6
-56.3405  267.158  665.6
-54.6058  278.274  665.6
-44.2461  283.611  665.6
-31.6564  281.151  665.6
-19.7681  275.611  665.6
-8.1272  269.373  665.6
0.215546  259.413  665.6
-11.6357  261.409  638.87
-3.95633  255.738  638.87
0.720264  247.476  638.87
4.87625  238.846  638.87
8.94153  230.152  638.87
9.92745  220.77  638.87
1.05726  215.381  638.87
-7.5796  218.091  638.87
-14.9901  225.476  638.87
-22.1662  233.045  638.87
-29.3184  240.503  638.87
-35.5791  247.044  638.87
-41.8177  253.593  638.87
-48.0764  260.136  638.87
-54.3719  266.691  638.87
-54.2271  275.105  638.87
-45.5623  279.359  638.87
-36.6556  276.257  638.87
-28.047  271.813  638.87
-19.6227  266.955  638.87
-14.7971  253.669  612.14
-5.41005  248.495  612.14
-2.34893  238.411  612.14
-0.604534  227.827  612.14
1.12811  217.194  612.14
0.743229  206.687  612.14
-7.73165  201.269  612.14
-17.4873  201.758  612.14
-24.5475  209.124  612.14
-31.3786  216.723  612.14
-38.1954  224.326  612.14
-43.8898  230.67  612.14
-49.5612  237.025  612.14
-55.2649  243.365  612.14
-61.0858  249.65  612.14
-61.7328  257.351  612.14
-53.6664  262.89  612.14
-43.6358  262.016  612.14
-33.5702  261.081  612.14
-23.9768  257.979  612.14
-21.7972  214.866  584.599
