-31.6743 198.067 1221.08
-33.2399 204.277 1198.3
-34.2857 208.988 1180.74
-38.7078 213.829 1162.37
-54.1739 220.424 1141.1
-65.0446 226.593 1107.63
-72.0328 231.981 1086.36
-77.173 236.605 1065
-82.4015 241.314 1043.65
-89.0376 249.481 1010.54
-94.954 253.325 988.974
-100.207 257.562 967.482
-84.5563 269.712 935.837
-68.9093 276.591 903.445
-57.7825 281.424 870.739
-44.5309 280.823 838.047
-32.6633 275.806 805.171
-24.0912 272.189 772.477
-13.1413 269.163 740.443
-2.25132 253.883 708.212
-17.8622 190.114 1213.29
-20.4606 196.133 1193.43
-23.3991 200.545 1177.76
-29.8451 207.271 1161.52
-43.7671 218.222 1141.05
-54.7011 224.784 1107.67
-60.8986 231.755 1086.71
-66.3305 237.91 1065.61
-71.5849 243.186 1044.35
-79.0201 253.126 1011.53
-85.2539 256.419 989.867
-89.8512 261.437 968.535
-74.1599 273.218 936.968
-58.5683 278.287 904.466
-48.1888 279.459 871.413
-36.7444 276.779 838.501
-27.3491 270.88 805.42
-20.303 267.183 772.66
-11.009 261.548 740.331
-0.607141 245.582 708.128
-11.6614 180.18 1200.77
-13.0207 185.517 1185.73
-15.31 189.096 1173.16
-22.7381 198.273 1160.2
-34.6902 211.939 1140.27
-45.6275 219.649 1107.11
-51.3734 227.09 1086.25
-55.7725 234.865 1065.48
-61.2685 241.654 1044.48
-68.4678 252.921 1011.91
-75.627 259.472 990.75
-79.9194 264.001 969.358
-63.1097 273.974 937.727
-47.9717 276.309 905.013
-39.4024 274.795 871.688
-30.3097 270.808 838.599
-23.068 264.764 805.427
-16.869 260.919 772.695
-9.93713 253.951 740.043
-1.31677 236.243 707.558
-9.23335 171.497 1189.09
-10.5687 174.284 1176.78
-12.8033 176.663 1167.66
-17.6774 187.257 1158.46
-27.8288 202.899 1138.95
-38.3645 212.311 1106.11
-43.4607 220.111 1085.35
-47.4934 228.881 1064.77
-52.0128 237.06 1044.05
-58.7073 249.7 1011.75
-65.068 259.734 991.212
-69.2896 266.168 970.143
-51.8051 271.713 938.054
-38.2985 270.838 905.021
-32.0503 267.695 871.536
-25.9854 263.429 838.311
-19.8417 257.29 805.172
-15.3123 253.398 772.355
-11.9873 246.107 739.217
-4.80073 226.629 706.46
-8.93829 163.219 1177.43
-9.99305 163.795 1168.17
-12.0522 164.411 1162.11
-15.8543 175.095 1156.43
-23.1909 192.4 1137.3
-32.6685 202.412 1104.62
-37.1093 211.032 1084.04
-40.3424 220.284 1063.59
-43.9299 230.176 1043.2
-49.4264 244.127 1011.19
-54.2454 255.388 990.926
-56.553 265.09 970.484
-40.8332 266.104 937.862
-30.3889 262.354 904.489
-27.5462 258.279 870.836
-24.0282 254.413 837.584
-19.8061 248.824 804.409
-16.7834 245.489 771.533
-16.7924 238.761 737.961
-10.6259 216.917 704.923
-9.77449 154.437 1164.78
-11.9663 155.196 1160.75
-13.3724 155.86 1158.08
-15.5919 162.115 1154.21
-21.8629 179.605 1135.16
-29.1841 191.017 1102.81
-33.3112 200.809 1082.45
-35.5709 211.072 1062.21
-38.2089 221.795 1042.02
-43.2796 236.138 1010.1
-45.8832 247.962 990.036
-46.1804 259.186 969.941
-33.7674 257.714 937.029
-26.7205 252.327 903.425
-26.7947 248.686 869.759
-25.7378 245.696 836.474
-23.6512 242.042 803.29
-22.7487 240.351 770.252
-23.2135 233.501 736.562
-20.5912 210.843 702.788
-19.0123 148.695 1154.33
-19.0123 148.695 1154.33
-19.0123 148.695 1154.33
-19.0123 148.695 1154.33
-24.4931 166.705 1132.88
-30.7223 178.961 1100.71
-32.2155 188.783 1080.46
-33.6963 199.634 1060.36
-34.8828 211.067 1040.35
-40.1046 226.523 1008.63
-42.0137 237.547 988.477
-39.7634 248.843 968.511
-30.9497 246.436 935.517
-27.1319 241.786 901.979
-29.4699 239.374 868.39
-30.924 238.913 835.174
-30.1653 237.497 802.024
-30.0067 237.909 768.984
-31.4874 230.795 735.01
-32.5255 212.912 700.669
-32.2004 151.036 1154.33
-32.2004 151.036 1154.33
-32.2004 151.036 1154.33
-32.2004 151.036 1154.33
-37.3111 160.865 1131.48
-38.661 168.932 1098.75
-37.878 177.826 1078.42
-36.569 188.933 1058.47
-36.2155 199.864 1038.44
-40.0147 216.305 1006.95
-42.7907 226.876 986.691
-39.7457 237.02 966.579
-34.0804 234.936 933.623
-32.1649 232.714 900.375
-35.7186 232.184 866.937
-37.366 233.883 833.918
-37.4708 235.428 800.879
-37.1153 237.089 767.861
-39.3664 232.894 733.821
-39.5785 224.684 699.911
-45.3885 153.376 1154.33
-45.3885 153.376 1154.33
-45.3885 153.376 1154.33
-45.3885 153.376 1154.33
-49.5008 161.152 1131.14
-50.2555 165.752 1097.82
-47.5753 171.238 1076.97
-44.5011 180.451 1056.77
-42.6047 190.476 1036.64
-44.2304 206.258 1005.12
-47.2172 217.466 984.969
-45.5214 226.933 964.696
-40.4501 226.829 932.044
-39.0645 225.783 898.916
-43.7259 227.529 865.62
-44.8746 230.914 832.758
-44.3805 234.403 799.881
-43.8496 238.425 766.959
-45.6615 238.269 733.098
-40.1227 235.983 700.34
-58.5766 155.717 1154.33
-58.5766 155.717 1154.33
-58.5766 155.717 1154.33
-58.5766 155.717 1154.33
-58.9218 161.785 1130.95
-60.9139 165.973 1097.5
-58.5463 169.477 1076.3
-54.7915 175.75 1055.61
-51.7915 185.138 1035.42
-51.7516 199.003 1003.63
-53.2754 209.907 983.486
-52.1393 219.508 963.214
-48.2116 220.38 930.63
-47.1713 220.927 897.642
-52.113 224.738 864.491
-52.8481 230.115 831.774
-51.3502 235.058 799.027
-49.6459 241.235 766.308
-50.9756 243.104 732.506
-41.2382 241.772 700.405
-71.7647 158.057 1154.33
-71.7647 158.057 1154.33
-71.7647 158.057 1154.33
-71.7647 158.057 1154.33
-66.7725 161.592 1130.67
-69.6033 166.363 1097.27
-68.4338 169.718 1075.99
-65.036 174.996 1055.12
-62.0309 182.202 1034.55
-61.4153 194.367 1002.49
-61.4107 203.291 982.075
-58.7398 212.25 961.76
-56.8047 215.316 929.373
-56.5654 217.731 896.493
-61.5442 223.429 863.44
-61.2919 231.495 830.966
-58.1891 238.009 798.399
-54.9242 245.58 765.852
-55.4776 248.509 732.085
-46.1144 245.507 699.674
-84.9528 160.398 1154.33
-84.9528 160.398 1154.33
-84.9528 160.398 1154.33
-84.9528 160.398 1154.33
-76.2398 161.565 1130.36
-79.1829 166.781 1097.02
-77.5598 170.151 1075.75
-74.5898 176.29 1055
-71.9062 181.663 1034.1
-71.3085 193.918 1002.03
-71.1418 200.311 981.2
-67.631 206.382 960.44
-66.7928 211.632 928.24
-66.8726 216.586 895.548
-70.9196 224.936 862.731
-69.193 235.541 830.5
-63.8661 243.146 798.121
-58.8813 251.388 765.704
-58.9808 255.462 731.927
-53.5526 252.361 698.615
-98.1409 162.738 1154.33
-98.1409 162.738 1154.33
-98.1409 162.738 1154.33
-98.1409 162.738 1154.33
-87.5976 164.041 1130.43
-89.4807 169.414 1097.12
-87.8817 172.345 1075.76
-84.145 178.542 1055.03
-81.2927 184.529 1034.24
-80.9638 196.381 1002.07
-81.0606 200.25 980.797
-78.5388 203.721 959.562
-78.1877 210.54 927.41
-77.6679 218.765 895.013
-79.7797 230.357 862.54
-74.8904 242.004 830.536
-67.8444 250.076 798.228
-61.1015 258.318 765.9
-60.1616 263.619 732.231
-59.2924 264.316 698.11
-105.792 171.346 1164.6
-104.172 171.096 1160.37
-103.441 171.185 1157.77
-102.797 176.992 1154.09
-97.9792 171.101 1131.3
-98.5713 175.959 1097.92
-96.9716 178.697 1076.52
-93.3696 183.348 1055.51
-90.1319 189.511 1034.74
-89.5224 199.811 1002.31
-91.2184 202.756 980.807
-89.9464 204.622 959.246
-89.6823 214.117 927.268
-86.7782 225.534 895.222
-85.8264 238.915 862.991
-78.2248 250.497 831.053
-69.1102 257.636 798.747
-60.6235 265.652 766.53
-57.5797 271.518 733.149
-56.3813 276.359 699.215
-101.434 179.771 1177.63
-101.972 179.986 1168.06
-102.049 180.118 1161.98
-97.3658 189.378 1156.38
-101.068 183.837 1133.37
-103.086 186.194 1099.5
-102.275 188.005 1077.9
-100.077 191.495 1056.63
-97.9252 196.407 1035.6
-98.4603 205.102 1002.84
-100.687 208.318 981.346
-100.845 209.692 959.633
-97.8728 222.635 928.055
-92.2862 235.512 896.139
-88.5271 248.861 863.925
-78.4593 259.055 831.927
-67.0901 265.437 799.72
-57.6301 272.255 767.479
-52.4168 277.851 734.403
-45.1413 281.46 701.541
-92.8652 186.021 1188.63
-93.7284 189.251 1176.95
-93.8182 191.501 1167.87
-89.0308 199.609 1158.39
-97.7971 195.553 1135.47
-103.006 197.64 1101.44
-104.054 198.649 1079.63
-103.308 200.516 1058.03
-102.405 203.821 1036.67
-103.775 211.791 1003.74
-106.19 214.773 982.19
-106.627 215.737 960.386
-101.233 231.311 929.149
-93.5644 244.252 897.214
-87.7856 256.904 864.958
-76.4222 266.301 832.919
-63.6029 271.654 800.741
-53.4202 277.705 768.522
-45.8674 282.952 735.814
-33.7214 281.845 703.68
-83.3814 190.641 1197.56
-83.9475 195.702 1183.74
-84.2106 199.355 1172.26
-80.0474 206.484 1159.84
-90.8277 204.685 1137.25
-99.6515 207.501 1103.23
-102.609 208.58 1081.36
-103.667 210.255 1059.65
-104.368 213.146 1038.15
-106.554 220.092 1005
-109.615 222.798 983.373
-110.422 223.837 961.555
-102.09 239.911 930.378
-92.4846 252.751 898.437
-85.0386 264.273 866.101
-72.6526 272.761 834.025
-58.9575 276.196 801.761
-47.5684 281.846 769.71
-38.1408 285.293 737.251
-24.0289 277.812 705.291
-74.9352 195.613 1206.73
-74.5043 201.853 1190.22
-74.0953 206.498 1176.36
-70.349 211.621 1161.02
-82.1291 210.793 1138.57
-92.5481 215.624 1104.84
-97.9451 217.295 1082.99
-100.809 219.606 1061.32
-103.273 222.02 1039.67
-106.594 229.032 1006.48
-110.815 230.953 984.667
-111.747 232.525 962.922
-101.047 248.202 931.672
-89.6053 260.598 899.711
-80.8585 270.744 867.272
-66.9512 277.292 835.145
-52.6097 279.491 802.892
-40.4641 283.602 770.904
-30.1644 282.885 738.438
-16.1455 273.302 706.543
-63.4417 199.881 1215.66
-62.6223 206.877 1196.13
-62.5683 211.98 1179.81
-61.0444 216.137 1162.08
-72.9797 215.042 1139.58
-84.3089 220.7 1105.98
-90.7229 223.777 1084.33
-94.8324 227.208 1062.8
-98.8699 230.528 1041.25
-103.76 236.861 1007.88
-109.372 239.587 986.144
-111.656 240.569 964.24
-98.4627 255.923 932.971
-85.1799 266.894 900.896
-74.6532 275.698 868.453
-60.5056 280.215 836.18
-45.9082 281.094 803.915
-33.9686 280.883 771.665
-24.049 278.695 739.204
-9.87741 267.967 707.457
-48.329 201.61 1221.91
-47.7831 208.63 1199.77
-48.3892 213.764 1181.78
-50.175 217.208 1162.6
-64.363 218.327 1140.42
-75.364 224.596 1106.94
-82.4537 228.44 1085.4
-87.0763 232.466 1063.96
-92.1972 236.591 1042.5
-98.1857 243.527 1009.2
-104.872 246.701 987.492
-109.434 248.898 965.691
-93.8977 263.286 934.334
-78.8922 271.997 902.063
-67.8045 278.851 869.48
-53.5692 282.402 837.193
-39.4386 279.443 804.613
-28.7783 276.685 772.12
-18.173 274.537 739.932
-5.25876 261.448 708.008
