-71.157822 128.741700 1273.017825
-72.110370 129.117754 1273.951890
-73.459677 129.147631 1273.921723
-74.817479 129.176958 1273.889398
-75.940235 128.834215 1272.874832
-77.304627 128.869616 1272.858194
-78.675076 128.897173 1272.819999
-79.756686 128.549822 1271.796337
-81.152525 128.599108 1271.814626
-82.511728 128.589891 1271.678409
-83.765870 128.458361 1271.221524
-85.220887 128.527361 1271.287974
-86.426155 128.341967 1270.681906
-87.749909 128.261431 1270.364838
-88.904913 128.030840 1269.649414
-90.011848 127.766100 1268.846083
-91.476954 127.792772 1268.797836
-92.591457 127.536058 1268.015443
-93.974001 127.480059 1267.751376
-95.373216 127.424608 1267.487437
-96.461174 127.147814 1266.653147
-97.891391 127.097521 1266.400571
-99.058709 126.870226 1265.693011
-100.791157 126.982958 1265.854485
-101.723906 126.605883 1264.763007
-103.059229 126.463335 1264.269788
-104.126816 126.167711 1263.386573
-105.367363 125.964525 1262.737931
-106.901888 125.905260 1262.452605
-107.602012 125.422930 1261.096952
-109.041400 125.302813 1260.655603
-109.955510 124.930590 1259.578752
-111.096634 124.663073 1258.765138
-112.210195 124.380693 1257.913831
-113.038684 123.977434 1256.760449
-113.998010 123.631426 1255.750449
-114.809175 123.221178 1254.599110
-115.024855 122.604754 1252.902795
-116.341160 122.400255 1252.244417
-116.767246 121.871904 1250.787316
-117.594444 121.491533 1249.695693
-118.392701 121.089739 1248.583689
-119.059421 120.673052 1247.372436
-119.814603 120.274370 1246.237474
-120.023809 119.713030 1244.709285
-120.960846 119.374712 1243.721792
-121.537603 118.931963 1242.482818
-122.183745 118.511400 1241.297837
-123.043452 118.143816 1240.250566
-123.087104 117.575975 1238.705869
-124.518634 117.354754 1237.993022
-124.572922 116.794848 1236.481505
-125.880547 116.530779 1235.663491
-126.665881 116.125963 1234.549172
-127.422761 115.741808 1233.413446
-128.155068 115.333910 1232.259237
-128.880857 114.925036 1231.095405
-129.694560 114.528643 1229.961697
-130.419582 114.095446 1228.780639
-131.163393 113.695299 1227.598202
-131.520920 113.220171 1226.265116
-132.355842 112.803820 1225.100838
-133.177156 112.389055 1223.917078
-133.872939 111.950563 1222.679780
-134.549754 111.505388 1221.426018
-135.326184 111.068743 1220.187926
-136.023624 110.617281 1218.914688
-136.700160 110.157930 1217.623416
-137.531919 109.711138 1216.351979
-138.338246 109.254122 1215.056069
-138.755372 108.752855 1213.672243
-139.518642 108.280031 1212.337216
-140.247972 107.797442 1210.978208
-141.048004 107.313128 1209.609133
-141.663618 106.807909 1208.198662
-142.243961 106.294329 1206.768819
-142.716669 105.768877 1205.315581
-143.469611 105.252504 1203.864090
-143.963022 104.716204 1202.379928
-144.424978 104.172884 1200.879811
-144.846319 103.622835 1199.364486
-145.170993 103.065218 1197.836139
-145.925354 102.509966 1196.280517
-146.312201 101.940432 1194.715908
-146.657597 101.364702 1193.137814
-147.188761 100.782641 1191.527539
-147.885162 100.190447 1189.876399
-148.739904 99.584520 1188.175392
-149.028360 98.977144 1186.516761
-149.281384 98.363909 1184.845489
-149.983471 97.728243 1183.076912
-150.578171 97.083986 1181.293702
-151.132330 96.429201 1179.486136
-151.844316 95.753603 1177.609252
-152.551617 95.063860 1175.693392
-151.962534 97.042954 1181.070000
-152.341254 96.807446 1180.070000
-152.296890 96.323858 1179.070000
-153.114533 95.963443 1178.070000
-153.122816 95.592168 1177.070000
-153.075528 95.219286 1176.070000
-153.007911 94.853035 1175.070000
-153.150224 94.463923 1174.070000
-153.294773 94.049001 1173.070000
-153.351113 93.675232 1172.070000
-153.985785 93.389394 1171.070000
-154.708377 93.042162 1170.070000
-154.826059 92.687674 1169.070000
-154.832446 92.298001 1168.070000
-155.068719 91.942046 1167.070000
-155.278773 91.611048 1166.070000
-155.221531 91.197953 1165.070000
-155.262380 90.827652 1164.070000
-155.291675 90.438648 1163.070000
-155.248260 90.065593 1162.070000
-155.006394 89.683911 1161.070000
-155.088824 89.332685 1160.070000
-155.133252 88.922478 1159.070000
-155.386584 88.602352 1158.070000
-155.657378 88.230852 1157.070000
-155.804354 87.863784 1156.070000
-155.801979 87.499255 1155.070000
-155.453523 87.127709 1154.070000
-155.036675 86.735053 1153.070000
-155.042643 86.363668 1152.070000
-155.029716 85.990946 1151.070000
-154.997350 85.618453 1150.070000
-154.784657 85.240416 1149.070000
-154.722709 84.867652 1148.070000
-154.998300 84.511957 1147.070000
-155.230241 84.258679 1146.070000
-154.839328 83.793429 1145.070000
-154.562614 83.377131 1144.070000
-154.183364 82.982500 1143.070000
-153.834425 82.610310 1142.070000
-153.822371 82.242841 1141.070000
-153.735871 81.864864 1140.070000
-153.628731 81.490070 1139.070000
-153.489567 81.113597 1138.070000
-153.502580 80.734800 1137.070000
-153.348788 80.366868 1136.070000
-153.329023 79.972163 1135.070000
-153.300070 79.608905 1134.070000
-153.585802 79.259707 1133.070000
-153.556428 78.886465 1132.070000
-153.563770 78.509004 1131.070000
-153.552783 78.143192 1130.070000
-153.925855 77.798999 1129.070000
-153.938411 77.412869 1128.070000
-153.972517 77.042410 1127.070000
-154.086556 76.679946 1126.070000
-154.038346 76.302703 1125.070000
-153.849504 75.747266 1124.070000
-154.479851 75.591488 1123.070000
-154.715572 75.239227 1122.070000
-154.146730 75.139559 1121.070000
-153.756263 75.087034 1120.070000
-153.401500 75.051483 1119.070000
-153.494507 75.112843 1118.070000
-153.367459 75.126820 1117.070000
-153.686298 75.238884 1116.070000
-153.739511 75.292023 1115.070000
-153.566362 75.292032 1114.070000
-153.438343 75.321027 1113.070000
-153.145041 75.285963 1112.070000
-152.998580 75.283898 1111.070000
-152.992690 75.314206 1110.070000
-152.991014 75.366892 1109.070000
-152.999943 75.420323 1108.070000
-153.077534 75.491894 1107.070000
-153.185467 75.561593 1106.070000
-153.125830 75.597298 1105.070000
-153.147019 75.642141 1104.070000
-153.050422 75.656986 1103.070000
-153.802296 75.910663 1102.070000
-153.273776 75.788539 1101.070000
-152.783281 75.731800 1100.070000
-152.410344 75.696732 1099.070000
-152.215301 75.695632 1098.070000
-152.087563 75.709651 1097.070000
-152.003938 75.734883 1096.070000
-151.726537 75.718338 1095.070000
-151.625642 75.739674 1094.070000
-151.651953 75.787462 1093.070000
-151.756724 75.851663 1092.070000
-151.715844 75.885475 1091.070000
-151.582990 75.900166 1090.070000
-151.288268 75.881066 1089.070000
-151.227241 75.910663 1088.070000
-151.212025 75.949847 1087.070000
-151.001547 75.948318 1086.070000
-150.948630 75.970457 1085.070000
-150.805063 75.978229 1084.070000
-150.656062 75.971934 1083.070000
-150.529162 75.974120 1082.070000
-151.038590 76.161778 1081.070000
-151.122928 76.223088 1080.070000
-151.099340 76.269262 1079.070000
-150.420333 76.142205 1078.070000
-150.285460 76.174267 1077.070000
-150.241324 76.213620 1076.070000
-150.114149 76.229290 1075.070000
-150.004514 76.249491 1074.070000
-149.781237 76.247047 1073.070000
-149.592165 76.245665 1072.070000
-149.416233 76.257725 1071.070000
-149.172614 76.244363 1070.070000
-148.984625 76.247746 1069.070000
-149.096268 76.313628 1068.070000
-149.192258 76.375700 1067.070000
-149.175112 76.414420 1066.070000
-149.099123 76.440957 1065.070000
-149.043011 76.471575 1064.070000
-149.037290 76.512762 1063.070000
-149.141270 76.576762 1062.070000
-149.133988 76.617577 1061.070000
-149.391389 76.713564 1060.070000
-148.758344 76.623947 1059.070000
-148.484652 76.609269 1058.070000
-148.407045 76.635801 1057.070000
-148.316014 76.679155 1056.070000
-148.326349 76.733003 1055.070000
-148.320756 76.768457 1054.070000
-147.967479 76.718033 1053.070000
-147.739826 76.708992 1052.070000
-147.722090 76.747448 1051.070000
-147.538578 76.743126 1050.070000
-147.519427 76.783069 1049.070000
-147.492192 76.827647 1048.070000
-147.479145 76.870823 1047.070000
-147.411183 76.898362 1046.070000
-147.305802 76.914691 1045.070000
-147.168105 76.924498 1044.070000
-147.008417 76.927593 1043.070000
-146.980962 76.980775 1042.070000
-146.751113 76.967607 1041.070000
-146.671210 76.993474 1040.070000
-146.730635 77.048627 1039.070000
-146.921949 77.137100 1038.070000
-146.771196 77.141275 1037.070000
-146.475493 77.121960 1036.070000
-146.584021 77.186930 1035.070000
-146.488795 77.209411 1034.070000
-146.291289 77.210606 1033.070000
-146.192389 77.232355 1032.070000
-146.147861 77.265415 1031.070000
-145.895444 77.255105 1030.070000
-146.103138 77.340767 1029.070000
-145.858167 77.337543 1028.070000
-145.612203 77.319457 1027.070000
-145.499326 77.341135 1026.070000
-145.501635 77.380525 1025.070000
-145.027086 77.325934 1024.070000
-145.150784 77.398541 1023.070000
-144.481847 77.271368 1022.070000
-144.220362 77.252622 1021.070000
-144.198880 77.292780 1020.070000
-144.166992 77.324357 1019.070000
-144.179896 77.362290 1018.070000
-144.489069 77.528176 1017.070000
-144.366613 77.533600 1016.070000
-144.174845 77.535591 1015.070000
-144.051393 77.548230 1014.070000
-143.439605 77.459547 1013.070000
-143.393479 77.493302 1012.070000
-143.316423 77.521290 1011.070000
-142.564035 77.407605 1010.070000
-142.551325 77.447298 1009.070000
-142.622832 77.504494 1008.070000
-142.554873 77.532668 1007.070000
-142.382229 77.539075 1006.070000
-142.261158 77.556181 1005.070000
-142.084025 77.561555 1004.070000
-141.866875 77.558876 1003.070000
-141.538692 77.537923 1002.070000
-141.339381 77.535465 1001.070000
-141.317719 77.593187 1000.070000
-140.942389 77.534247 999.070000
-140.549449 77.500005 998.070000
-140.544364 77.542653 997.070000
-140.562261 77.600143 996.070000
-140.419162 77.648400 995.070000
-139.974633 77.565559 994.070000
-139.946868 77.586707 993.070000
-139.926423 77.619825 992.070000
-139.709680 77.617136 991.070000
-139.606440 77.637949 990.070000
-139.206606 77.596980 989.070000
-138.649855 77.528078 988.070000
-138.627224 77.592869 987.070000
-138.545923 77.633805 986.070000
-138.516752 77.667352 985.070000
-138.422219 77.679120 984.070000
-138.327029 77.691836 983.070000
-137.731489 77.591236 982.070000
-137.219223 77.500070 981.070000
-136.886188 77.430814 980.070000
-136.787007 77.512701 979.070000
-136.146730 77.424925 978.070000
-135.970267 77.430482 977.070000
-135.664935 77.409170 976.070000
-135.294677 77.368379 975.070000
-135.248540 77.416270 974.070000
-135.098346 77.429450 973.070000
-134.008971 77.195305 972.070000
-133.948038 77.265702 971.070000
-133.801428 77.282839 970.070000
-133.583406 77.271788 969.070000
-133.556584 77.308369 968.070000
-133.402471 77.318012 967.070000
-133.231720 77.325254 966.070000
-133.149378 77.352942 965.070000
-133.115331 77.391889 964.070000
-132.999072 77.415430 963.070000
-132.086954 77.256237 962.070000
-131.970815 77.274381 961.070000
-131.576281 77.252862 960.070000
-131.172855 77.263007 959.070000
-130.813202 77.180512 958.070000
-130.640304 77.165005 957.070000
-130.463103 77.157220 956.070000
-130.338417 77.155897 955.070000
-130.593076 77.266030 954.070000
-129.905322 77.140110 953.070000
-130.331716 77.331591 952.070000
-130.492739 77.501167 951.070000
-130.506794 77.541777 950.070000
-129.312928 77.228451 949.070000
-129.361793 77.280980 948.070000
-129.369992 77.325022 947.070000
-128.505118 77.231147 946.070000
-128.655882 77.294479 945.070000
-128.262647 77.231527 944.070000
-128.891206 77.441175 943.070000
-128.657528 77.401616 942.070000
-128.557779 77.408605 941.070000
-128.244564 77.395358 940.070000
-128.373014 77.453633 939.070000
-128.222027 77.474148 938.070000
-128.335935 77.535238 937.070000
-128.324533 77.573094 936.070000
-128.304426 77.598600 935.070000
-128.224699 77.642235 934.070000
-128.431515 77.761856 933.070000
-128.899606 77.874323 932.070000
-129.153678 77.958098 931.070000
-129.058911 77.991399 930.070000
-129.078087 78.045352 929.070000
-129.077851 78.096588 928.070000
-129.814141 78.291530 927.070000
-129.860469 78.357130 926.070000
-128.979526 78.162119 925.070000
-128.375587 78.091597 924.070000
-128.393258 78.137612 923.070000
-128.973602 78.323429 922.070000
-128.653840 78.276635 921.070000
-128.574215 78.302358 920.070000
-128.557249 78.341157 919.070000
-128.811278 78.436453 918.070000
-129.029118 78.468900 917.070000
-129.434110 78.563677 916.070000
-129.381811 78.630649 915.070000
-129.359786 78.704306 914.070000
-129.349625 78.749103 913.070000
-129.346229 78.796393 912.070000
-129.489644 78.874247 911.070000
-129.823227 78.997887 910.070000
-129.442905 78.949167 909.070000
-130.518160 79.237891 908.070000
-130.894874 79.310673 907.070000
-132.257539 79.662864 906.070000
-132.963490 79.852320 905.070000
-132.987824 79.899733 904.070000
-133.116659 79.968913 903.070000
-133.653601 80.120806 902.070000
-134.270913 80.225913 901.070000
-135.145095 80.519782 900.070000
-136.481609 80.839610 899.070000
-137.194585 81.030612 898.070000
-137.581407 81.153526 897.070000
-139.100452 81.513895 896.070000
-139.746806 81.692709 895.070000
-140.432341 81.852160 894.070000
-141.371849 82.113638 893.070000
-141.632605 82.212323 892.070000
-142.015952 82.332910 891.070000
-142.387672 82.458356 890.070000
-142.552743 82.514794 889.070000
-143.049338 82.674284 888.070000
-142.630374 82.511305 887.070000
-142.661504 82.537636 886.070000
-145.445577 83.419286 885.070000
-145.199595 83.297395 884.070000
-145.859761 83.486149 883.070000
-146.150838 83.571855 882.070000
-145.967171 83.559919 881.070000
-145.958985 83.592831 880.070000
-146.418622 83.739010 879.070000
-146.827674 83.881433 878.070000
-146.897211 83.935740 877.070000
-147.863747 84.218421 876.070000
-148.321777 84.294828 875.070000
-149.702588 84.653821 874.070000
-150.103514 84.779712 873.070000
-150.142938 84.830233 872.070000
-150.216608 84.887958 871.070000
-150.643240 85.019206 870.070000
-150.898004 85.114625 869.070000
-152.290961 85.445584 868.070000
-152.779115 85.591194 867.070000
-153.080976 85.695114 866.070000
-153.462698 85.808919 865.070000
-153.741530 85.878967 864.070000
-154.152035 85.982356 863.070000
-154.460639 86.088556 862.070000
-155.572150 86.427598 861.070000
-156.192712 86.599297 860.070000
-156.647733 86.736481 859.070000
-157.051766 86.862987 858.070000
-157.276230 86.952155 857.070000
-158.619488 87.279531 856.070000
-159.103208 87.418883 855.070000
-159.563675 87.556501 854.070000
-160.027792 87.689711 853.070000
-160.623080 87.875706 852.070000
-160.771277 87.944418 851.070000
-161.373077 88.148617 850.070000
-161.534164 88.203622 849.070000
-162.047344 88.341065 848.070000
-162.709503 88.508437 847.070000
-163.349200 88.682695 846.070000
-163.869825 88.837985 845.070000
-164.157690 88.934730 844.070000
-164.505120 89.055222 843.070000
-164.593974 89.116061 842.070000
-164.566056 89.151276 841.070000
-164.538771 89.194520 840.070000
-165.079807 89.363487 839.070000
-165.080133 89.368848 838.070000
-166.703773 89.763928 837.070000
-166.875789 89.842137 836.070000
-167.088792 89.928856 835.070000
-167.097484 89.973014 834.070000
-167.263904 90.050022 833.070000
-167.459895 90.133191 832.070000
-167.477655 90.179237 831.070000
-167.455353 90.216973 830.070000
-167.782696 90.327549 829.070000
-168.156571 90.447764 828.070000
-168.741283 90.612002 827.070000
-169.091791 90.738238 826.070000
-169.357909 90.837512 825.070000
-170.086278 91.052187 824.070000
-170.108168 91.088251 823.070000
-169.947735 91.076144 822.070000
-169.931534 91.114733 821.070000
-169.917076 91.154251 820.070000
-170.045283 91.220502 819.070000
-170.131973 91.259792 818.070000
-170.707410 91.423118 817.070000
-171.326778 91.625531 816.070000
-171.524540 91.704943 815.070000
-171.627489 91.768983 814.070000
-171.724193 91.827953 813.070000
-171.749256 91.874354 812.070000
-171.768909 91.918519 811.070000
-171.805095 91.966257 810.070000
-171.992945 92.058913 809.070000
-172.075825 92.117438 808.070000
-172.139157 92.164784 807.070000
-172.261316 92.238818 806.070000
-172.428693 92.324337 805.070000
-172.670584 92.424258 804.070000
-172.917686 92.499445 803.070000
-172.830078 92.518714 802.070000
-172.801593 92.551902 801.070000
-172.728103 92.572941 800.070000
-172.771571 92.624436 799.070000
-172.929121 92.700241 798.070000
-173.176098 92.800359 797.070000
-173.487840 92.908598 796.070000
-173.926090 93.049177 795.070000
-173.926720 93.086914 794.070000
-174.041780 93.157506 793.070000
-174.127887 93.236589 792.070000
-174.084781 93.281414 791.070000
-174.096099 93.330040 790.070000
-174.185148 93.378625 789.070000
-174.426548 93.469013 788.070000
-174.795340 93.583457 787.070000
-174.945220 93.652433 786.070000
-174.880354 93.688630 785.070000
-174.795226 93.726969 784.070000
-174.745621 93.742862 783.070000
-174.767497 93.791254 782.070000
-174.642180 93.797757 781.070000
-174.601150 93.829942 780.070000
-174.484807 93.843263 779.070000
-174.554087 93.904475 778.070000
-174.634854 93.957931 777.070000
-174.933600 94.070268 776.070000
-174.915011 94.100956 775.070000
-174.886917 94.139668 774.070000
-174.689495 94.138058 773.070000
-174.560020 94.152615 772.070000
-174.548507 94.193467 771.070000
-174.586855 94.243791 770.070000
-174.635569 94.296324 769.070000
-174.718446 94.355947 768.070000
-174.810966 94.417507 767.070000
-174.866642 94.471492 766.070000
-174.758159 94.491212 765.070000
-174.711922 94.523940 764.070000
-174.584497 94.539692 763.070000
-174.409812 94.545616 762.070000
-174.295685 94.564181 761.070000
-174.268074 94.600745 760.070000
-174.195223 94.627898 759.070000
-174.174714 94.665957 758.070000
-174.077848 94.688161 757.070000
-174.350713 94.787323 756.070000
-174.031107 94.763113 755.070000
-173.955623 94.790030 754.070000
-173.879528 94.817425 753.070000
-173.800985 94.842344 752.070000
-173.270679 94.763933 751.070000
-172.924968 94.740953 750.070000
-172.789920 94.757571 749.070000
-172.747235 94.791235 748.070000
-172.741375 94.832731 747.070000
-172.657105 94.857903 746.070000
-172.536363 94.877018 745.070000
-171.938624 94.799303 744.070000
-171.409634 94.743604 743.070000
-170.805205 94.641582 742.070000
-170.668378 94.654569 741.070000
-170.233349 94.603676 740.070000
-169.692096 94.537801 739.070000
-169.763651 94.598482 738.070000
-169.804349 94.653567 737.070000
-169.806698 94.700824 736.070000
-168.924730 94.545593 735.070000
-168.618666 94.524118 734.070000
-168.489729 94.539562 733.070000
-168.199538 94.521452 732.070000
-167.788889 94.478202 731.070000
-167.610856 94.486475 730.070000
-167.468216 94.540261 729.070000
-167.038982 94.508710 728.070000
-166.534030 94.398312 727.070000
-166.334852 94.392964 726.070000
-166.136402 94.389158 725.070000
-165.830389 94.370335 724.070000
-165.077855 94.232643 723.070000
-164.534272 94.161899 722.070000
-163.212088 93.947699 721.070000
-162.452710 93.823623 720.070000
-162.206485 93.786430 719.070000
-161.338835 93.641782 718.070000
-161.330054 93.713524 717.070000
-161.462621 93.788065 716.070000
-161.091507 93.759471 715.070000
-160.308037 93.613574 714.070000
-159.704525 93.538276 713.070000
-159.603416 93.579080 712.070000
-159.144310 93.523251 711.070000
-158.460917 93.423155 710.070000
-158.312716 93.434612 709.070000
-157.986283 93.400325 708.070000
-157.971015 93.443942 707.070000
-158.083015 93.513426 706.070000
-154.874716 94.122695 698.595000
