80.0845  177.119  33.0303
76.8365  185.315  34.0303
78.3461  183.238  35.0303
78.2444  183.317  36.0303
78.1282  183.4  37.0303
78.3333  180.561  38.0303
78.1487  179.885  39.0303
78.0767  179.548  40.0303
77.6748  176.872  41.0303
76.7929  176.372  42.0303
75.893  175.866  43.0303
74.9053  175.215  44.0303
73.1969  174.424  45.0303
57.5315  169.118  46.0303
49.7425  167.09  47.0303
42.2687  164.817  48.0303
37.9617  162.895  49.0303
35.0701  161.501  50.0303
32.7342  160.314  51.0303
29.853  159.176  52.0303
27.0452  158.105  53.0303
25.5844  157.219  54.0303
22.6805  156.126  55.0303
19.162  155.075  56.0303
14.7562  155.607  57.0303
12.074  154.697  58.0303
8.74329  153.662  59.0303
6.22404  152.777  60.0303
3.79799  151.925  61.0303
2.04177  151.247  62.0303
-1.39113  151.84  63.0303
-3.79889  151.061  64.0303
-6.81952  150.13  65.0303
-8.4714  149.495  66.0303
-10.8662  148.801  67.0303
-13.2541  148.078  68.0303
-16.3318  147.187  69.0303
-18.139  147.911  70.0303
-21.0123  147.196  71.0303
-23.1991  146.599  72.0303
-25.4101  145.961  73.0303
-27.5872  145.287  74.0303
-29.6821  144.525  75.0303
-31.1288  143.919  76.0303
-34.8124  142.969  77.0303
-37.7443  142.144  78.0303
-41.0066  140.168  79.0303
-43.0852  139.474  80.0303
-44.584  138.948  81.0303
-47.4789  138.187  82.0303
-48.2479  137.851  83.0303
-49.4999  136.488  84.0303
-50.4095  135.958  85.0303
-51.336  135.438  86.0303
-53.0525  134.086  87.0303
-54.1919  133.713  88.0303
-54.5709  133.594  89.0303
-54.9469  133.477  90.0303
-55.5588  132.472  91.0303
-55.5748  132.39  92.0303
-56.5837  131.952  93.0303
-57.5075  130.708  94.0303
-57.9705  130.556  95.0303
-59.1518  130.344  96.0303
-60.2263  129.257  97.0303
-60.6653  129.012  98.0303
-60.8123  128.9  99.0303
-60.855  128.029  100.03
-61.147  127.894  101.03
-62.1876  127.701  102.03
-63.2281  127.554  103.03
-63.5591  127.468  104.03
-64.5837  127.333  105.03
-64.8472  126.503  106.03
-65.7175  126.499  107.03
-66.5308  126.541  108.03
-66.9651  126.674  109.03
-67.2265  126.847  110.03
-67.2458  127.135  111.03
-66.4298  127.52  112.03
-66.0358  127.78  113.03
-66.6071  127.927  114.03
-66.6251  127.956  115.03
-66.7561  127.871  116.03
-66.9061  127.881  117.03
-67.0651  127.929  118.03
-67.356  128.598  119.03
-67.689  128.554  120.03
-68.081  128.527  121.03
-68.535  128.519  122.03
-69.8275  128.348  123.03
-71.2811  128.033  124.03
-71.8021  127.902  125.03
-72.7116  127.914  126.03
-72.8656  127.979  127.03
-72.9406  128.048  128.03
-73.1502  128.716  129.03
-73.4812  128.689  130.03
-73.7302  128.719  131.03
-73.7902  128.884  132.03
-73.8832  128.998  133.03
-74.0632  128.972  134.03
-74.2132  128.978  135.03
-74.2582  129.091  136.03
-74.3202  129.203  137.03
-74.4562  129.316  138.03
-74.5862  129.411  139.03
-74.6842  129.41  140.03
-74.8449  130.049  141.03
-74.9559  130.128  142.03
-75.7752  130.141  143.03
-75.9052  130.318  144.03
-76.0342  130.477  145.03
-76.1402  130.351  146.03
-76.2472  130.277  147.03
-76.3582  130.481  148.03
-76.4692  130.686  149.03
-76.5112  130.776  150.03
-76.5532  130.864  151.03
-76.7172  130.794  152.03
-76.8892  130.714  153.03
-76.9312  130.877  154.03
-76.9602  131.062  155.03
-77.0652  131.084  156.03
-77.1812  131.082  157.03
-76.5889  131.166  158.03
-76.7029  131.178  159.03
-76.7679  131.38  160.03
-76.8199  131.628  161.03
-77.0325  132.237  162.03
-77.1985  132.139  163.03
-77.2155  132.168  164.03
-77.1775  132.244  165.03
-77.2525  132.277  166.03
-77.3775  132.293  167.03
-77.4635  132.335  168.03
-77.5305  132.39  169.03
-77.5905  132.445  170.03
-77.6465  132.498  171.03
-77.7055  132.532  172.03
-77.7675  132.552  173.03
-77.8435  132.525  174.03
-77.9305  132.462  175.03
-77.3195  132.512  176.03
-77.4195  132.502  177.03
-77.4925  132.612  178.03
-77.5355  132.852  179.03
-76.8925  132.946  180.03
-76.9795  132.673  181.03
-77.0335  132.598  182.03
-77.0415  132.798  183.03
-77.0825  132.885  184.03
-77.1765  132.787  185.03
-77.2465  132.697  186.03
-76.5665  132.706  187.03
-76.6025  132.691  188.03
-76.6625  132.814  189.03
-76.7335  132.913  190.03
-76.8315  132.956  191.03
-76.9015  132.935  192.03
-76.2245  132.902  193.03
-76.2765  132.812  194.03
-76.3645  132.765  195.03
-76.4375  132.759  196.03
-76.4345  132.955  197.03
-75.7436  133.183  198.03
-75.8746  132.958  199.03
-75.9946  132.761  200.03
-76.0026  132.837  201.03
-76.0166  132.902  202.03
-76.0966  132.855  203.03
-76.1746  132.804  204.03
-75.5106  132.729  205.03
-75.6459  133.267  206.03
-75.6719  133.32  207.03
-75.6989  133.376  208.03
-75.7799  133.478  209.03
-75.8629  133.582  210.03
-75.1455  133.596  211.03
-75.1245  133.496  212.03
-75.2005  133.404  213.03
-75.2885  133.312  214.03
-74.6921  133.463  215.03
-74.8021  133.54  216.03
-74.8631  133.352  217.03
-75.0203  133.827  218.03
-74.3718  133.935  219.03
-74.4278  134.001  220.03
-74.4978  133.948  221.03
-73.8703  133.966  222.03
-73.9433  133.886  223.03
-73.3127  133.923  224.03
-73.4107  133.893  225.03
-72.8182  133.996  226.03
-72.9092  133.994  227.03
-72.9892  133.995  228.03
-73.0352  133.899  229.03
-73.0582  133.739  230.03
-73.1422  133.706  231.03
-73.2702  133.769  232.03
-73.3572  133.726  233.03
-73.4092  133.591  234.03
-73.5032  133.441  235.03
-73.6412  133.278  236.03
-73.7692  133.227  237.03
-73.8862  133.307  238.03
-73.3137  133.388  239.03
-73.4617  133.21  240.03
-73.5997  133.1  241.03
-73.6043  132.311  242.03
-73.017  132.388  243.03
-73.125  132.331  244.03
-73.227  132.264  245.03
-72.6136  132.271  246.03
-72.7106  132.172  247.03
-72.8246  132.054  248.03
-72.9176  131.995  249.03
-72.9506  132.114  250.03
-72.2813  132.288  251.03
-71.6169  132.305  252.03
-71.6629  132.222  253.03
-71.7319  132.14  254.03
-71.7959  132.073  255.03
-71.8249  132.091  256.03
-71.8619  132.105  257.03
-71.9699  132.084  258.03
-72.0729  132.054  259.03
-72.1219  131.936  260.03
-72.1699  131.824  261.03
-71.5025  131.973  262.03
-71.5405  132.022  263.03
-70.9412  132.011  264.03
-71.0472  131.9  265.03
-71.0902  131.832  266.03
-71.1312  131.766  267.03
-71.1702  131.862  268.03
-71.2082  131.971  269.03
-70.5358  131.982  270.03
-70.5668  131.871  271.03
-70.5838  131.856  272.03
-70.5998  131.841  273.03
-70.6588  131.871  274.03
-70.7268  131.91  275.03
-70.7878  131.865  276.03
-70.8458  131.797  277.03
-70.3375  132.726  278.03
-70.4035  132.678  279.03
-70.4605  132.729  280.03
-70.5135  132.818  281.03
-69.8549  132.887  282.03
-69.896  132.784  283.03
-69.9739  132.74  284.03
-70.0719  132.729  285.03
-70.1439  132.763  286.03
-70.2009  132.826  287.03
-70.2549  132.795  288.03
-69.7569  133.713  289.03
-69.7799  133.663  290.03
-69.7789  133.652  291.03
-69.1055  133.811  292.03
-69.1585  133.892  293.03
-69.2005  133.898  294.03
-69.2315  133.823  295.03
-69.2455  133.751  296.03
-69.2365  133.685  297.03
-69.2595  133.706  298.03
-69.3315  133.855  299.03
-69.564  134.847  300.03
-69.61  134.803  301.03
-68.9148  134.877  302.03
-68.8338  134.78  303.03
-68.7908  134.722  304.03
-68.8388  134.753  305.03
-68.8768  134.787  306.03
-68.8878  134.829  307.03
-68.8898  134.848  308.03
-68.8598  134.792  309.03
-68.1236  134.924  310.03
-68.0506  135.144  311.03
-67.9856  135.303  312.03
-67.9676  135.138  313.03
-67.9486  134.992  314.03
-67.9326  134.992  315.03
-67.9156  134.999  316.03
-67.8906  135.078  317.03
-67.8606  135.154  318.03
-68.5088  135.081  319.03
-68.4588  135.137  320.03
-68.4188  134.93  321.03
-68.3788  134.723  322.03
-68.3258  134.697  323.03
-68.101  133.748  324.03
-68.015  133.9  325.03
-67.928  134.064  326.03
-67.824  133.938  327.03
-67.0175  133.907  328.03
-66.9125  133.93  329.03
-67.3544  132.926  330.03
-67.2104  132.977  331.03
-67.0584  133.028  332.03
-67.0104  132.887  333.03
-66.9864  132.698  334.03
-66.9064  132.639  335.03
-66.67  131.686  336.03
-66.596  131.75  337.03
-66.53  131.845  338.03
-66.394  131.718  339.03
-66.226  131.493  340.03
-66.066  131.436  341.03
-66.4919  130.442  342.03
-66.3779  130.479  343.03
-65.5829  130.608  344.03
-65.4329  130.57  345.03
-65.2389  130.478  346.03
-65.7529  130.271  347.03
-65.5619  130.129  348.03
-65.4079  130.161  349.03
-65.2739  130.28  350.03
-65.1459  130.235  351.03
-65.0229  130.015  352.03
-64.8219  129.855  353.03
-64.6464  130.693  354.03
-64.4134  130.62  355.03
-64.2714  130.564  356.03
-64.0904  130.506  357.03
-63.8454  130.447  358.03
-63.7289  131.297  359.03
-63.4589  131.206  360.03
-63.2119  131.142  361.03
-63.0179  131.135  362.03
-62.7999  131.09  363.03
-62.5169  130.943  364.03
-62.4085  131.68  365.03
-62.2155  131.396  366.03
-61.302  131.298  367.03
-61.01  131.322  368.03
-61.4285  131.184  369.03
-61.1955  130.978  370.03
-60.9535  130.763  371.03
-60.6505  130.483  372.03
-60.3475  130.221  373.03
-60.0335  130.123  374.03
-60.2734  128.995  375.03
-60.0344  128.877  376.03
-59.7934  128.758  377.03
-59.4894  128.605  378.03
-59.0497  127.546  379.03
-58.0874  127.284  380.03
-57.8294  126.92  381.03
-56.8229  125.712  382.03
-55.9049  125.431  383.03
-56.235  124.454  384.03
-55.3306  124.586  385.03
-54.8184  123.53  386.03
-53.6498  123.432  387.03
-53.3848  123.008  388.03
-52.3793  121.634  389.03
-52.0583  121.344  390.03
-50.9467  120.179  391.03
-49.8174  120.051  392.03
-49.3356  118.931  393.03
-48.8986  118.695  394.03
-48.4616  118.427  395.03
-47.1948  117.32  396.03
-45.9416  117.211  397.03
-45.5196  116.89  398.03
-44.4424  116.489  399.03
-43.1853  116.356  400.03
-42.5393  116.36  401.03
-42.0043  116.19  402.03
-41.5403  115.908  403.03
-40.3511  115.693  404.03
-39.1509  115.519  405.03
-38.6409  115.334  406.03
-38.1132  115.15  407.03
-37.6737  114.873  408.03
-37.3231  114.5  409.03
-36.9126  114.256  410.03
-36.4623  115.211  411.03
-36.0545  115.072  412.03
-35.7381  114.883  413.03
-35.3703  114.703  414.03
-34.2605  115.625  415.03
-33.8536  115.395  416.03
-33.5168  115.055  417.03
-32.5223  115.94  418.03
-32.1463  115.929  419.03
-31.7961  115.865  420.03
-31.5104  115.668  421.03
-31.3381  116.504  422.03
-31.1642  116.141  423.03
-30.9349  115.844  424.03
-30.5063  115.784  425.03
-30.2495  116.709  426.03
-29.3219  116.446  427.03
-29.1036  116.138  428.03
-28.8969  116.001  429.03
-28.6833  115.864  430.03
-28.4188  115.728  431.03
-28.2756  116.682  432.03
-27.9836  116.612  433.03
-27.6988  116.526  434.03
-28.2781  115.98  435.03
-28.1512  115.522  436.03
-27.9332  115.417  437.03
-27.7152  115.312  438.03
-26.9082  116.585  439.03
-26.664  116.695  440.03
-26.641  116.358  441.03
-26.6329  115.992  442.03
-26.3614  115.886  443.03
-26.0603  115.809  444.03
-25.8668  115.741  445.03
-25.6896  115.675  446.03
-25.5713  115.603  447.03
-25.6258  116.61  448.03
-26.2523  116.346  449.03
-26.1845  116.171  450.03
-25.9558  116.121  451.03
-25.6763  116.111  452.03
-25.4716  115.994  453.03
-25.2954  115.835  454.03
-25.9454  115.48  455.03
-25.949  115.198  456.03
-25.804  115.253  457.03
-25.5794  115.489  458.03
-26.1571  115.403  459.03
-26.0932  115.302  460.03
-25.9928  115.192  461.03
-25.8667  115.075  462.03
-25.7702  114.902  463.03
-25.698  114.683  464.03
-25.5624  114.742  465.03
-25.3658  115.068  466.03
-25.2688  115.138  467.03
-25.9823  114.82  468.03
-25.9396  114.666  469.03
-25.6739  113.551  470.03
-25.4856  113.603  471.03
-25.1854  113.853  472.03
-25.0537  113.872  473.03
-25.0811  113.672  474.03
-25.6516  112.471  475.03
-25.5999  112.621  476.03
-24.8409  112.822  477.03
-24.7848  112.853  478.03
-24.6657  112.928  479.03
-24.2548  112.091  480.03
-24.051  112.175  481.03
-24.152  111.871  482.03
-24.2192  111.652  483.03
-24.7574  110.68  484.03
-23.9557  110.907  485.03
-23.7337  111.288  486.03
-23.5515  111.581  487.03
-23.5575  110.244  488.03
-23.6291  109.975  489.03
-23.5261  110.025  490.03
-23.4231  110.085  491.03
-23.3184  110.314  492.03
-23.8613  109.464  493.03
-23.8154  109.522  494.03
-23.7694  109.581  495.03
-23.9657  109.459  496.03
-24.1655  109.333  497.03
-24.0361  109.463  498.03
-23.8416  108.58  499.03
-23.6929  108.718  500.03
-23.5442  108.854  501.03
-23.6534  108.67  502.03
-23.7924  108.45  503.03
-23.7249  108.606  504.03
-23.6566  108.765  505.03
-22.8033  108.954  506.03
-22.6423  109.119  507.03
-22.5508  109.086  508.03
-22.4802  108.994  509.03
-22.5391  108.84  510.03
-22.6448  108.664  511.03
-22.4847  108.888  512.03
-22.2081  109.288  513.03
-22.1174  109.378  514.03
-22.1685  110.349  515.03
-22.206  110.188  516.03
-22.2619  109.974  517.03
-22.1616  109.997  518.03
-21.951  110.188  519.03
-21.1247  110.363  520.03
-20.3339  110.519  521.03
-20.3869  111.58  522.03
-20.4379  111.464  523.03
-20.48  111.327  524.03
-20.5128  111.169  525.03
-20.3871  111.213  526.03
-20.1473  112.572  527.03
-19.9811  112.66  528.03
-20.034  112.458  529.03
-20.0969  112.323  530.03
-20.1765  112.3  531.03
-20.1536  112.362  532.03
-18.6219  113.799  533.03
-18.4486  113.922  534.03
-18.3796  113.812  535.03
-18.3511  113.678  536.03
-18.4274  113.481  537.03
-17.7688  113.411  538.03
-17.0198  113.516  539.03
-16.2188  113.68  540.03
-15.9171  114.012  541.03
-15.6955  114.223  542.03
-15.1656  113.908  543.03
-15.3023  113.571  544.03
-15.1779  113.577  545.03
-15.0515  113.601  546.03
-14.904  113.785  547.03
-14.7638  113.959  548.03
-14.7309  113.961  549.03
-14.0119  114.01  550.03
-14.0931  113.874  551.03
-14.1743  113.737  552.03
-14.0373  113.785  553.03
-13.8982  113.834  554.03
-13.7185  113.91  555.03
-13.5367  113.987  556.03
-13.7158  113.689  557.03
-13.9253  113.36  558.03
-13.1131  113.625  559.03
-12.9671  113.884  560.03
-12.8906  113.947  561.03
-12.8265  113.973  562.03
-12.7399  113.865  563.03
-12.5362  112.565  564.03
-11.8597  112.469  565.03
-11.9267  112.306  566.03
-11.1526  112.396  567.03
-10.3316  112.553  568.03
-10.2901  112.614  569.03
-10.2782  112.659  570.03
-10.4259  113.765  571.03
-10.48  113.606  572.03
-10.3987  113.522  573.03
-10.24  113.48  574.03
-9.4882  113.499  575.03
-9.5211  113.435  576.03
-9.5512  113.466  577.03
-9.5794  113.572  578.03
-9.6485  113.588  579.03
-9.18587  114.818  580.03
-9.13337  114.791  581.03
-8.92027  114.801  582.03
-8.81217  114.738  583.03
-8.83187  114.584  584.03
-9.05721  115.679  585.03
-9.18221  115.596  586.03
-9.23741  115.597  587.03
-9.17851  115.738  588.03
-9.13881  115.805  589.03
-9.31587  116.955  590.03
-9.27488  116.863  591.03
-9.15478  116.711  592.03
-8.36945  116.686  593.03
-8.38025  116.591  594.03
-8.36995  116.537  595.03
-8.29285  116.609  596.03
-8.25335  116.679  597.03
-8.27645  116.745  598.03
-8.28385  116.781  599.03
-8.21725  116.68  600.03
-7.43333  116.691  601.03
-7.25642  116.594  602.03
-7.09822  116.498  603.03
-7.10822  116.408  604.03
-6.415  116.442  605.03
-6.4146  116.536  606.03
-6.414  116.627  607.03
-7.11212  116.527  608.03
-7.10773  116.538  609.03
-6.91573  116.474  610.03
-6.72283  116.409  611.03
-6.0181  116.255  612.03
-5.83713  114.729  613.03
-5.78763  114.757  614.03
-5.02946  114.907  615.03
-5.03696  114.951  616.03
-5.05247  114.995  617.03
-5.08517  114.911  618.03
-5.12086  114.806  619.03
-5.03786  114.694  620.03
-4.92887  114.581  621.03
-4.74995  113.166  622.03
-4.76425  113.008  623.03
-4.76785  113.019  624.03
-4.76775  113.086  625.03
-4.85975  113.051  626.03
-4.98815  112.975  627.03
-4.91964  112.917  628.03
-4.81275  112.862  629.03
-4.74855  112.715  630.03
-4.56377  111.244  631.03
-4.50507  111.099  632.03
-4.43427  110.989  633.03
-4.45437  110.935  634.03
-4.54107  110.921  635.03
-4.58987  110.925  636.03
-4.60507  110.946  637.03
-5.06576  111.128  638.03
-4.55955  111.617  639.03
-4.35933  113.134  640.03
-4.90591  113.047  641.03
-4.72701  113.146  642.03
-4.52261  113.377  643.03
-3.74223  113.628  644.03
-3.33256  115.043  645.03
-3.65826  114.705  646.03
-4.33086  113.66  647.03
-4.95278  114.173  648.03
-4.87947  114.045  649.03
-4.79287  113.899  650.03
-4.18454  115.095  651.03
-4.10334  114.939  652.03
-4.13674  114.879  653.03
-4.4154  116.105  654.03
-3.79529  116.255  655.03
-3.84909  116.273  656.03
-3.79239  116.312  657.03
-3.299  117.736  658.03
-3.2378  117.51  659.03
-3.86754  117.15  660.03
-3.0697  117.184  661.03
-2.9799  117.077  662.03
-3.0373  117.052  663.03
-3.0924  117.031  664.03
-3.0872  117.141  665.03
-3.0819  117.25  666.03
-3.09849  117.115  667.03
-3.115  116.981  668.03
-3.01919  116.84  669.03
-2.65797  115.411  670.03
-2.61507  115.3  671.03
-2.58127  115.195  672.03
-3.13636  113.777  673.03
-3.23026  113.777  674.03
-2.61248  113.911  675.03
-2.69528  113.921  676.03
-3.22932  112.374  677.03
-3.27082  112.205  678.03
-3.23112  112.079  679.03
-3.87245  111.853  680.03
-3.94815  111.711  681.03
-4.06955  111.559  682.03
-4.17785  111.531  683.03
-3.57872  111.66  684.03
-3.71972  111.685  685.03
-3.87872  111.711  686.03
-4.02692  111.631  687.03
-4.16942  111.492  688.03
-4.23292  111.333  689.03
-4.24672  111.161  690.03
-4.38032  111.002  691.03
-4.59942  110.853  692.03
-4.69482  110.33  693.03
-3.9807  109.594  694.03
-4.2724  109.643  695.03
-4.85619  110.556  696.03
