-86.0865  695.03  -145.583
-166.525  115.274  34.0303
-167.597  117.184  35.0303
-167.052  117.59  36.0303
-167.895  119.864  37.0303
-167.42  119.441  38.0303
-167.585  121.068  39.0303
-167.678  120.815  40.0303
-167.7  122.83  41.0303
-167.214  122.722  42.0303
-167.307  124.629  43.0303
-166.921  124.346  44.0303
-166.552  124.035  45.0303
-166.213  125.588  46.0303
-166.297  124.869  47.0303
-166.093  124.05  48.0303
-165.555  123.259  49.0303
-166.089  124.218  50.0303
-165.642  123.61  51.0303
-165.728  122.99  52.0303
-165.048  122.597  53.0303
-165.122  122.031  54.0303
-164.195  123.351  55.0303
-164.209  122.893  56.0303
-164.167  122.521  57.0303
-163.357  122.277  58.0303
-162.493  122.02  59.0303
-162.911  121.505  60.0303
-161.845  121.32  61.0303
-161.507  121.048  62.0303
-161.202  120.839  63.0303
-161.513  120.455  64.0303
-161.04  120.191  65.0303
-160.6  119.975  66.0303
-159.507  119.971  67.0303
-159.102  119.791  68.0303
-158.687  119.567  69.0303
-158.865  119.306  70.0303
-158.252  119.293  71.0303
-157.651  119.263  72.0303
-157.074  119.193  73.0303
-156.464  119.086  74.0303
-155.771  118.891  75.0303
-155.128  118.716  76.0303
-154.627  118.605  77.0303
-154.768  118.335  78.0303
-154.027  118.174  79.0303
-154.009  117.875  80.0303
-154.112  117.621  81.0303
-153.514  117.525  82.0303
-154.283  117.189  83.0303
-153.592  117.139  84.0303
-153.103  116.868  85.0303
-152.632  116.607  86.0303
-152.374  116.472  87.0303
-152.113  116.346  88.0303
-151.797  116.374  89.0303
-152.173  116.257  90.0303
-151.493  116.323  91.0303
-151.509  116.241  92.0303
-151.812  115.89  93.0303
-151.425  115.682  94.0303
-151.192  115.678  95.0303
-151.666  115.54  96.0303
-151.413  115.454  97.0303
-151.852  115.209  98.0303
-151.999  115.097  99.0303
-151.407  115.153  100.03
-151.699  115.018  101.03
-152.03  114.874  102.03
-152.361  114.777  103.03
-152.515  113.892  104.03
-152.83  113.806  105.03
-152.446  113.879  106.03
-152.606  113.913  107.03
-152.709  113.992  108.03
-151.74  114.322  109.03
-150.597  114.692  110.03
-149.906  115.017  111.03
-148.908  114.642  112.03
-148.514  114.902  113.03
-148.375  115.087  114.03
-147.703  115.288  115.03
-147.834  115.203  116.03
-147.984  115.213  117.03
-147.95  114.516  118.03
-147.513  114.7  119.03
-147.846  114.656  120.03
-147.551  114.813  121.03
-147.318  114.989  122.03
-147.214  115.053  123.03
-147.271  114.971  124.03
-147.792  114.84  125.03
-147.803  114.22  126.03
-147.273  114.481  127.03
-147.348  114.55  128.03
-147.508  114.587  129.03
-147.156  114.756  130.03
-147.405  114.786  131.03
-147.465  114.951  132.03
-147.558  115.065  133.03
-147.054  115.236  134.03
-147.204  115.242  135.03
-147.249  115.355  136.03
-147.311  115.467  137.03
-147.447  115.58  138.03
-147.577  115.675  139.03
-147.675  115.674  140.03
-147.091  115.88  141.03
-147.202  115.959  142.03
-147.314  116.046  143.03
-147.62  116.856  144.03
-147.749  117.015  145.03
-147.855  116.889  146.03
-147.962  116.815  147.03
-148.073  117.019  148.03
-147.658  118.033  149.03
-147.7  118.123  150.03
-147.742  118.211  151.03
-147.364  118.928  152.03
-147.536  118.848  153.03
-147.578  119.011  154.03
-147.744  119.813  155.03
-147.849  119.835  156.03
-148.091  120.453  157.03
-148.206  120.463  158.03
-148.435  121.097  159.03
-148.5  121.299  160.03
-147.954  122.282  161.03
-148.095  122.262  162.03
-148.353  122.777  163.03
-148.451  123.421  164.03
-149.119  123.41  165.03
-149.265  124.072  166.03
-149.39  124.088  167.03
-149.537  124.759  168.03
-149.604  124.814  169.03
-149.713  125.5  170.03
-149.769  125.553  171.03
-149.867  126.218  172.03
-149.929  126.238  173.03
-150.033  126.843  174.03
-150.12  126.78  175.03
-150.215  126.744  176.03
-150.315  126.734  177.03
-150.388  126.844  178.03
-150.431  127.084  179.03
-150.494  127.091  180.03
-151.291  126.793  181.03
-151.345  126.718  182.03
-151.353  126.918  183.03
-151.366  126.361  184.03
-151.46  126.263  185.03
-151.53  126.173  186.03
-151.556  126.095  187.03
-151.553  125.436  188.03
-151.613  125.559  189.03
-152.393  125.609  190.03
-152.491  125.652  191.03
-152.51  124.975  192.03
-152.539  124.856  193.03
-152.591  124.766  194.03
-152.679  124.719  195.03
-152.752  124.713  196.03
-152.749  124.909  197.03
-153.473  124.988  198.03
-153.604  124.763  199.03
-153.776  125.234  200.03
-153.784  125.31  201.03
-153.798  125.375  202.03
-153.919  125.997  203.03
-153.997  125.946  204.03
-154.039  125.784  205.03
-154.111  126.29  206.03
-154.137  126.343  207.03
-154.182  127.068  208.03
-154.98  127.84  209.03
-155.063  127.944  210.03
-155.044  128.541  211.03
-155.023  128.441  212.03
-156.503  129.081  213.03
-156.591  128.989  214.03
-156.668  129.747  215.03
-156.778  129.824  216.03
-156.796  130.342  217.03
-156.845  130.094  218.03
-156.843  130.795  219.03
-156.899  130.861  220.03
-156.969  130.808  221.03
-156.976  131.418  222.03
-157.049  131.338  223.03
-157.121  131.264  224.03
-157.927  131.309  225.03
-158.037  131.3  226.03
-158.128  131.298  227.03
-158.208  131.299  228.03
-158.254  131.203  229.03
-158.346  130.327  230.03
-158.43  130.294  231.03
-158.558  130.357  232.03
-159.411  129.646  233.03
-160.218  128.818  234.03
-160.312  128.668  235.03
-160.482  127.761  236.03
-160.63  126.966  237.03
-160.747  127.046  238.03
-160.883  126.272  239.03
-161.025  125.35  240.03
-161.163  125.24  241.03
-161.976  124.467  242.03
-162.093  124.445  243.03
-162.168  123.632  244.03
-162.27  123.565  245.03
-162.315  122.718  246.03
-163.121  122.569  247.03
-163.235  122.451  248.03
-163.328  122.392  249.03
-164.01  121.683  250.03
-164.045  121.758  251.03
-164.085  121.676  252.03
-164.131  121.593  253.03
-164.908  121.449  254.03
-165.035  122.173  255.03
-165.064  122.191  256.03
-165.81  122.155  257.03
-165.918  122.134  258.03
-166.021  122.104  259.03
-166.07  121.986  260.03
-166.167  122.679  261.03
-166.204  122.729  262.03
-166.242  122.778  263.03
-166.347  122.668  264.03
-166.453  122.557  265.03
-167.242  123.27  266.03
-167.283  123.204  267.03
-167.322  123.3  268.03
-168.071  123.384  269.03
-168.103  123.296  270.03
-168.134  123.185  271.03
-168.173  124.001  272.03
-168.189  123.986  273.03
-168.959  124.003  274.03
-169.027  124.042  275.03
-169.088  123.997  276.03
-169.146  123.929  277.03
-169.21  123.876  278.03
-169.276  123.828  279.03
-169.333  123.879  280.03
-169.386  123.968  281.03
-170.141  123.914  282.03
-170.182  123.811  283.03
-170.971  123.755  284.03
-171.069  123.744  285.03
-171.141  123.778  286.03
-171.198  123.841  287.03
-171.252  123.81  288.03
-171.305  123.711  289.03
-171.328  123.661  290.03
-171.327  123.65  291.03
-171.354  123.686  292.03
-171.407  123.767  293.03
-171.449  123.773  294.03
-171.48  123.698  295.03
-171.494  123.626  296.03
-171.485  123.56  297.03
-171.508  123.581  298.03
-171.58  123.73  299.03
-172.355  123.794  300.03
-172.401  123.75  301.03
-172.404  123.688  302.03
-172.323  123.591  303.03
-172.28  123.533  304.03
-172.328  123.564  305.03
-172.366  123.598  306.03
-173.088  123.628  307.03
-173.09  123.647  308.03
-173.06  123.591  309.03
-173.022  123.587  310.03
-172.957  124.7  311.03
-172.892  124.859  312.03
-172.874  124.694  313.03
-172.855  124.548  314.03
-172.839  124.548  315.03
-172.822  124.555  316.03
-172.797  124.634  317.03
-172.767  124.71  318.03
-172.717  124.773  319.03
-172.667  124.829  320.03
-172.627  124.622  321.03
-172.587  124.415  322.03
-172.534  124.389  323.03
-172.481  124.367  324.03
-172.395  124.519  325.03
-172.308  124.683  326.03
-172.204  124.557  327.03
-172.098  124.403  328.03
-171.993  124.426  329.03
-171.882  123.582  330.03
-171.738  123.633  331.03
-171.586  123.684  332.03
-171.538  123.543  333.03
-171.514  123.354  334.03
-171.434  123.295  335.03
-171.337  123.274  336.03
-171.263  123.338  337.03
-171.173  122.54  338.03
-171.037  122.413  339.03
-170.159  122.213  340.03
-169.999  122.156  341.03
-169.842  122.184  342.03
-169.728  122.221  343.03
-169.639  122.263  344.03
-169.45  121.345  345.03
-169.256  121.253  346.03
-169.064  121.133  347.03
-168.873  120.991  348.03
-168.719  121.023  349.03
-168.585  121.142  350.03
-168.457  121.097  351.03
-168.334  120.877  352.03
-168.133  120.717  353.03
-167.836  120.632  354.03
-167.603  120.559  355.03
-167.461  120.503  356.03
-167.28  120.445  357.03
-167.035  120.386  358.03
-166.82  121.196  359.03
-166.55  121.105  360.03
-166.303  121.041  361.03
-166.109  121.034  362.03
-165.891  120.989  363.03
-165.608  120.842  364.03
-165.346  120.662  365.03
-165.153  120.378  366.03
-164.94  120.156  367.03
-164.648  120.18  368.03
-164.389  121.046  369.03
-164.156  120.84  370.03
-163.914  120.625  371.03
-163.611  120.345  372.03
-163.308  120.083  373.03
-162.994  119.985  374.03
-162.685  119.886  375.03
-162.446  119.768  376.03
-162.205  119.649  377.03
-161.901  119.496  378.03
-161.597  119.344  379.03
-161.339  118.983  380.03
-161.081  118.619  381.03
-160.907  118.322  382.03
-160.676  117.123  383.03
-161.826  117.095  384.03
-162.34  117.128  385.03
-161.917  116.999  386.03
-161.457  116.839  387.03
-161.192  116.415  388.03
-159.548  115.98  389.03
-159.227  115.69  390.03
-158.844  114.524  391.03
-156.294  114.471  392.03
-155.855  114.33  393.03
-155.418  114.094  394.03
-154.981  113.826  395.03
-155.107  112.758  396.03
-154.565  112.636  397.03
-154.143  112.315  398.03
-153.777  111.902  399.03
-153.869  110.804  400.03
-153.223  110.808  401.03
-152.688  110.638  402.03
-152.933  110.294  403.03
-152.455  110.067  404.03
-151.878  108.966  405.03
-151.368  108.781  406.03
-151.548  108.522  407.03
-151.108  108.245  408.03
-150.758  107.872  409.03
-150.242  106.704  410.03
-149.764  106.605  411.03
-149.356  106.466  412.03
-149.746  106.19  413.03
-149.378  106.01  414.03
-148.932  105.841  415.03
-148.525  105.611  416.03
-148.189  105.271  417.03
-147.839  105.042  418.03
-147.339  104.096  419.03
-147.112  104.967  420.03
-146.827  104.77  421.03
-147.276  104.444  422.03
-147.102  104.081  423.03
-146.872  103.784  424.03
-146.444  103.724  425.03
-145.378  103.66  426.03
-145.264  104.26  427.03
-145.046  103.952  428.03
-144.839  103.815  429.03
-144.716  104.617  430.03
-144.451  104.481  431.03
-144.259  105.29  432.03
-143.967  105.22  433.03
-143.739  106.075  434.03
-143.613  105.616  435.03
-142.816  106.124  436.03
-142.622  106.95  437.03
-142.404  106.845  438.03
-142.169  107.879  439.03
-141.925  107.989  440.03
-141.894  108.582  441.03
-141.886  108.216  442.03
-141.59  109.041  443.03
-141.289  108.964  444.03
-141.055  109.825  445.03
-140.877  109.759  446.03
-140.759  109.687  447.03
-140.595  110.543  448.03
-140.519  110.39  449.03
-140.451  110.215  450.03
-140.223  110.165  451.03
-139.943  110.155  452.03
-139.739  110.038  453.03
-139.562  109.879  454.03
-139.51  109.635  455.03
-139.514  109.353  456.03
-139.368  109.408  457.03
-139.144  109.644  458.03
-139.019  109.67  459.03
-139.012  108.64  460.03
-138.912  108.53  461.03
-138.785  108.413  462.03
-138.689  108.24  463.03
-138.617  108.021  464.03
-138.481  108.08  465.03
-138.325  107.477  466.03
-138.228  107.547  467.03
-138.239  107.34  468.03
-138.196  107.186  469.03
-138.109  106.171  470.03
-137.921  106.223  471.03
-137.621  106.473  472.03
-137.489  106.492  473.03
-137.524  105.362  474.03
-137.525  105.281  475.03
-137.473  105.431  476.03
-137.42  105.545  477.03
-137.356  104.646  478.03
-137.237  104.721  479.03
-136.944  104.919  480.03
-136.74  105.003  481.03
-136.841  104.699  482.03
-136.173  103.574  483.03
-136.103  103.702  484.03
-136.01  103.867  485.03
-135.788  104.248  486.03
-135.605  104.541  487.03
-135.653  103.326  488.03
-135.725  103.057  489.03
-135.622  103.107  490.03
-136.229  103.13  491.03
-136.124  103.359  492.03
-135.964  102.657  493.03
-135.918  102.715  494.03
-135.872  102.774  495.03
-136.068  102.652  496.03
-136.268  102.526  497.03
-136.848  102.607  498.03
-136.699  102.753  499.03
-137.259  102.841  500.03
-137.111  102.977  501.03
-137.22  102.793  502.03
-137.359  102.573  503.03
-138.001  102.679  504.03
-137.933  102.838  505.03
-137.79  103.002  506.03
-137.629  103.167  507.03
-137.538  103.134  508.03
-138.177  102.993  509.03
-138.235  102.839  510.03
-138.341  102.663  511.03
-138.181  102.887  512.03
-137.904  103.287  513.03
-137.874  104.355  514.03
-137.879  104.285  515.03
-138.627  104.087  516.03
-138.683  103.873  517.03
-139.293  103.859  518.03
-139.793  104.012  519.03
-139.721  105.167  520.03
-139.641  105.285  521.03
-139.629  105.281  522.03
-140.39  105.14  523.03
-140.432  105.003  524.03
-140.492  105.874  525.03
-141.789  105.893  526.03
-143.599  106.152  527.03
-143.433  106.24  528.03
-143.486  106.038  529.03
-143.558  106.995  530.03
-143.638  106.972  531.03
-144.326  107.034  532.03
-144.107  107.26  533.03
-143.933  107.383  534.03
-143.864  107.273  535.03
-143.826  108.243  536.03
-143.903  108.046  537.03
-144.663  107.915  538.03
-144.621  107.945  539.03
-144.527  108.035  540.03
-144.226  108.367  541.03
-144.715  108.59  542.03
-144.893  108.2  543.03
-145.029  107.863  544.03
-145.616  107.882  545.03
-145.49  107.905  546.03
-146.053  108.103  547.03
-145.913  108.276  548.03
-145.88  108.278  549.03
-145.869  108.253  550.03
-145.95  108.117  551.03
-146.031  107.98  552.03
-146.605  108.04  553.03
-146.466  108.089  554.03
-146.287  108.165  555.03
-146.105  108.242  556.03
-146.284  107.944  557.03
-146.504  106.449  558.03
-147.11  106.64  559.03
-147.675  106.899  560.03
-146.887  106.962  561.03
-146.823  106.988  562.03
-146.737  106.88  563.03
-146.645  106.741  564.03
-146.677  106.583  565.03
-146.744  106.42  566.03
-146.678  106.448  567.03
-147.989  106.543  568.03
-147.937  105.4  569.03
-147.925  105.445  570.03
-147.957  105.353  571.03
-148.011  105.194  572.03
-147.93  105.11  573.03
-147.771  105.068  574.03
-147.727  105.012  575.03
-147.76  104.948  576.03
-148.511  106.183  577.03
-148.54  106.289  578.03
-149.32  106.305  579.03
-149.426  106.241  580.03
-149.373  106.214  581.03
-149.16  106.224  582.03
-149.052  106.161  583.03
-149.072  106.007  584.03
-149.137  105.884  585.03
-149.262  105.801  586.03
-149.317  105.802  587.03
-149.247  107.171  588.03
-149.208  107.238  589.03
-149.203  107.173  590.03
-149.162  107.081  591.03
-149.042  106.929  592.03
-148.959  106.793  593.03
-148.97  106.698  594.03
-148.96  106.644  595.03
-149.594  106.729  596.03
-149.554  106.799  597.03
-149.577  106.865  598.03
-149.552  108.141  599.03
-149.486  108.04  600.03
-149.404  107.939  601.03
-149.227  107.842  602.03
-149.069  107.746  603.03
-149.079  107.656  604.03
-149.089  107.579  605.03
-149.088  107.673  606.03
-149.088  107.764  607.03
-149.083  107.775  608.03
-149.079  107.786  609.03
-148.887  107.722  610.03
-148.694  107.657  611.03
-148.692  107.392  612.03
-148.698  107.118  613.03
-148.648  107.146  614.03
-148.594  107.197  615.03
-149.313  107.266  616.03
-149.328  107.31  617.03
-149.361  107.226  618.03
-149.429  105.868  619.03
-149.346  105.756  620.03
-149.237  105.643  621.03
-149.225  105.495  622.03
-149.24  105.337  623.03
-149.243  105.348  624.03
-149.243  105.415  625.03
-149.335  105.38  626.03
-149.464  105.304  627.03
-149.395  105.246  628.03
-149.288  105.191  629.03
-149.235  103.791  630.03
-149.906  103.59  631.03
-149.847  103.445  632.03
-149.777  103.335  633.03
-149.797  103.281  634.03
-149.883  103.267  635.03
-149.932  103.271  636.03
-149.947  103.292  637.03
-149.701  103.548  638.03
-149.194  104.037  639.03
-148.851  104.297  640.03
-148.692  104.296  641.03
-148.513  104.395  642.03
-149.02  104.626  643.03
-148.945  104.791  644.03
-149.075  104.852  645.03
-149.4  104.514  646.03
-150.073  103.469  647.03
-150.506  102.718  648.03
-149.721  102.59  649.03
-148.212  102.444  650.03
-149.505  103.522  651.03
-148.713  103.353  652.03
-148.746  103.293  653.03
-148.789  103.25  654.03
-149.579  103.277  655.03
-149.633  103.295  656.03
-150.287  103.346  657.03
-150.23  103.346  658.03
-150.168  103.12  659.03
-150.069  104.185  660.03
-149.967  104.072  661.03
-149.877  103.965  662.03
-149.934  103.94  663.03
-149.99  103.919  664.03
-149.984  104.029  665.03
-149.979  104.138  666.03
-149.996  104.003  667.03
-150.012  103.869  668.03
-149.916  103.728  669.03
-149.817  103.587  670.03
-149.774  103.476  671.03
-149.774  102.093  672.03
-149.868  102.092  673.03
-149.962  102.092  674.03
-150.056  100.825  675.03
-150.139  100.835  676.03
-150.176  99.418  677.03
-150.218  99.249  678.03
-150.145  97.8454  679.03
-150.084  97.7304  680.03
-149.393  96.3488  681.03
-149.515  96.1971  682.03
-150.333  96.132  683.03
-150.359  94.8744  684.03
-151.919  94.7997  685.03
-152.078  94.8257  686.03
-152.305  96.0459  687.03
-152.448  95.9077  688.03
-152.511  95.7484  689.03
-152.525  95.5758  690.03
-152.659  95.4172  691.03
-152.878  95.2685  692.03
-154.394  94.671  693.03
-154.382  93.8239  694.03
-154.674  93.873  695.03
-155.316  96.112  696.03
