-52.941330 81.646736 1309.178267
-54.603686 82.354187 1308.447984
-56.197340 83.069418 1307.719412
-57.723452 83.792185 1306.992676
-59.183180 84.522243 1306.267899
-60.577684 85.259346 1305.545202
-61.908124 86.003252 1304.824710
-63.175658 86.753713 1304.106545
-64.381445 87.510487 1303.390829
-65.526646 88.273327 1302.677687
-66.612418 89.041990 1301.967241
-67.639922 89.816231 1301.259613
-68.610317 90.595804 1300.554927
-69.524762 91.380465 1299.853306
-70.384416 92.169970 1299.154872
-71.190438 92.964073 1298.459749
-71.943989 93.762529 1297.768059
-72.646226 94.565095 1297.079926
-73.298310 95.371525 1296.395472
-73.901399 96.181575 1295.714820
-74.456653 96.994999 1295.038094
-74.965231 97.811553 1294.365415
-75.428292 98.630993 1293.696908
-75.846996 99.453072 1293.032695
-76.222502 100.277548 1292.372898
-76.555969 101.104174 1291.717641
-76.848556 101.932707 1291.067047
-77.101423 102.762901 1290.421239
-77.315729 103.594512 1289.780339
-77.492633 104.427294 1289.144471
-77.633294 105.261004 1288.513757
-77.738872 106.095396 1287.888321
-77.810526 106.930226 1287.268285
-77.849415 107.765249 1286.653772
-77.856699 108.600219 1286.044906
-77.833536 109.434893 1285.441808
-77.781087 110.269026 1284.844603
-77.700509 111.102372 1284.253413
-77.592963 111.934688 1283.668360
-77.459608 112.765728 1283.089569
-77.301603 113.595247 1282.517161
-77.120107 114.423001 1281.951260
-76.916279 115.248745 1281.391988
-76.691280 116.072235 1280.839469
-76.446267 116.893225 1280.293826
-76.182401 117.711470 1279.755181
-75.900840 118.526727 1279.223657
-75.602744 119.338750 1278.699378
-75.289272 120.147295 1278.182465
-74.961584 120.952116 1277.673043
-74.620838 121.752969 1277.171234
-74.268194 122.549609 1276.677161
-73.904812 123.341792 1276.190947
-73.531849 124.129272 1275.712715
-73.150466 124.911806 1275.242588
-72.761823 125.689147 1274.780688
-72.367077 126.461052 1274.327139
-71.967389 127.227276 1273.882063
-71.563917 127.987573 1273.445584
-71.157822 128.741700 1273.017825
-70.750261 129.489411 1272.598908
-70.342395 130.230461 1272.188956
-69.935383 130.964607 1271.788092
-69.530384 131.691603 1271.396440
-69.128557 132.411203 1271.014122
-68.731062 133.123165 1270.641260
-68.339057 133.827242 1270.277979
-67.953703 134.523191 1269.924400
-67.576158 135.210765 1269.580648
-67.207581 135.889721 1269.246844
-66.849132 136.559815 1268.923111
-66.501970 137.220800 1268.609574
-66.167255 137.872432 1268.306354
-65.846145 138.514467 1268.013574
-65.539800 139.146659 1267.731358
-65.249379 139.768765 1267.459828
-64.975741 140.380646 1267.199007
-64.718544 140.982594 1266.948519
-64.477144 141.575007 1266.707888
-64.250898 142.158285 1266.476636
-64.039163 142.732826 1266.254288
-63.841296 143.299029 1266.040367
-63.656654 143.857292 1265.834396
-63.484595 144.408015 1265.635899
-63.324474 144.951595 1265.444400
-63.175649 145.488432 1265.259422
-63.037478 146.018923 1265.080489
-62.909316 146.543469 1264.907124
-62.790521 147.062468 1264.738851
-62.680449 147.576318 1264.575193
-62.578458 148.085418 1264.415673
-62.483905 148.590166 1264.259817
-62.396147 149.090963 1264.107146
-62.314540 149.588205 1263.957184
-62.238441 150.082292 1263.809456
-62.167208 150.573623 1263.663484
-62.100197 151.062596 1263.518792
-62.036766 151.549610 1263.374904
-61.976271 152.035063 1263.231343
-61.918069 152.519355 1263.087633
-61.861517 153.002884 1262.943297
-61.805973 153.486049 1262.797859
-61.750792 153.969248 1262.650842
-61.695333 154.452881 1262.501771
-61.638951 154.937345 1262.350167
-61.581005 155.423040 1262.195556
-61.520850 155.910364 1262.037460
-61.457844 156.399716 1261.875403
-61.391344 156.891495 1261.708908
-61.320707 157.386099 1261.537500
-61.245289 157.883927 1261.360702
-61.164448 158.385378 1261.178037
-61.077541 158.890850 1260.989028
-60.983924 159.400743 1260.793200
-60.882955 159.915454 1260.590076
-60.773990 160.435383 1260.379179
-60.656386 160.960929 1260.160033
-60.529501 161.492489 1259.932161
-60.392691 162.030463 1259.695088
-60.245314 162.575249 1259.448336
-60.086725 163.127247 1259.191429
-59.916283 163.686854 1258.923891
-59.733343 164.254470 1258.645245
-59.537264 164.830493 1258.355015
-59.327402 165.415321 1258.052724
-59.103114 166.009355 1257.737896
-58.863756 166.612991 1257.410054
-58.608687 167.226630 1257.068723
-58.337262 167.850669 1256.713424
-58.048839 168.485508 1256.343683
-57.742774 169.131545 1255.959022
-57.418426 169.789178 1255.558965
-57.075149 170.458808 1255.143036
-56.712303 171.140831 1254.710758
-56.329243 171.835647 1254.261655
-55.925326 172.543655 1253.795250
-55.499910 173.265253 1253.311066
-55.052351 174.000840 1252.808629
-54.582006 174.750815 1252.287459
-54.088233 175.515576 1251.747083
-53.570387 176.295522 1251.187022
-53.027827 177.091052 1250.606801
-52.459909 177.902565 1250.005943
-51.865990 178.730459 1249.383971
-51.245427 179.575133 1248.740410
-50.597577 180.436985 1248.074782
-49.921797 181.316415 1247.386611
-49.217444 182.213820 1246.675421
-48.483874 183.129601 1245.940736
-47.720445 184.064154 1245.182078
-46.926636 185.017736 1244.399091
