-106.456  -87.8659  138.03
-100.327  -87.863  138.03
-94.1191  -87.3892  138.03
-88.0938  -87.6457  138.03
-82.0561  -89.1231  138.03
-76.4664  -91.7365  138.03
-71.6183  -95.5339  138.03
-67.3694  -100.216  138.03
-64.0162  -105.267  138.03
-62.158  -111.341  138.03
-62.6867  -115.729  138.03
-63.9554  -119.893  138.03
-65.7879  -123.798  138.03
-68.0283  -127.587  138.03
-70.9433  -130.66  138.03
-74.2773  -133.355  138.03
-77.7072  -136.046  138.03
-81.5592  -137.812  138.03
-85.6518  -139.019  138.03
-89.8357  -139.019  138.03
-96.6311  -138.948  138.03
-102.605  -136.655  138.03
-108.597  -133.826  138.03
-114.879  -131.045  138.03
-119.316  -126.918  138.03
-123.759  -122.603  138.03
-127.944  -117.557  138.03
-131.738  -112.024  138.03
-135.336  -106.752  138.03
-137.67  -100.346  138.03
-136.288  -96.0436  138.03
-134.085  -92.1983  138.03
-130.688  -89.558  138.03
-126.587  -87.8154  138.03
-122.471  -86.448  138.03
-118.367  -86.5528  138.03
-114.373  -87.1074  138.03
-110.414  -87.1561  138.03
-114.24  -81.4185  169.03
-107.116  -82.5169  169.03
-100.158  -84.6705  169.03
-93.0127  -85.4239  169.03
-85.9857  -86.4363  169.03
-79.4778  -89.9975  169.03
-73.9314  -94.7157  169.03
-68.9422  -100.044  169.03
-65.3579  -106.273  169.03
-64.054  -113.51  169.03
-64.6662  -118.083  169.03
-65.7962  -122.581  169.03
-67.5991  -126.774  169.03
-70.2562  -130.381  169.03
-73.3382  -133.61  169.03
-76.7665  -136.435  169.03
-80.5857  -138.76  169.03
-84.5955  -140.687  169.03
-88.838  -141.997  169.03
-93.2238  -142.643  169.03
-99.5242  -141.38  169.03
-105.269  -138.425  169.03
-111.316  -135.823  169.03
-117.555  -133.264  169.03
-123.081  -129.658  169.03
-128.049  -125.661  169.03
-132.25  -120.957  169.03
-135.399  -115.126  169.03
-137.651  -108.947  169.03
-138.542  -102.378  169.03
-138.431  -98.5999  169.03
-136.866  -94.7259  169.03
-134.912  -91.089  169.03
-132.282  -88.029  169.03
-129.029  -85.7842  169.03
-125.534  -83.889  169.03
-121.956  -82.5116  169.03
-118.193  -81.6451  169.03
-111.249  -75.4736  200.03
-104.123  -75.8495  200.03
-97.4857  -77.7836  200.03
-90.7477  -79.5911  200.03
-84.2335  -81.7946  200.03
-78.7621  -86.9572  200.03
-73.9492  -92.3515  200.03
-69.2022  -97.8013  200.03
-65.5985  -103.928  200.03
-63.8685  -110.948  200.03
-63.9428  -116.128  200.03
-64.6957  -121.295  200.03
-66.5433  -126.24  200.03
-69.1753  -131.05  200.03
-72.5531  -135.151  200.03
-76.5244  -138.633  200.03
-80.8968  -141.739  200.03
-85.5897  -144.228  200.03
-90.6649  -145.836  200.03
-95.6594  -145.758  200.03
-101.802  -145.105  200.03
-107.941  -142.943  200.03
-114.01  -140.613  200.03
-120.325  -138.247  200.03
-125.91  -135.18  200.03
-130.953  -131.272  200.03
-135.396  -126.479  200.03
-138.614  -120.753  200.03
-140.88  -114.58  200.03
-142.466  -108.227  200.03
-142.007  -102.515  200.03
-140.995  -96.8937  200.03
-138.985  -91.5725  200.03
-135.967  -86.7935  200.03
-131.951  -82.6675  200.03
-127.203  -79.7493  200.03
-122.006  -77.7351  200.03
-116.61  -75.9714  200.03
-108.699  -66.7887  231.03
-100.874  -68.6023  231.03
-93.3191  -71.345  231.03
-85.9337  -74.1687  231.03
-79.5258  -78.4791  231.03
-74.4786  -85.2789  231.03
-69.6437  -91.5484  231.03
-65.9889  -98.1209  231.03
-62.7928  -105.262  231.03
-61.3015  -113.041  231.03
-62.3907  -118.365  231.03
-64.3074  -123.41  231.03
-66.3142  -128.538  231.03
-69.7286  -133.11  231.03
-73.5987  -137.211  231.03
-77.8089  -140.816  231.03
-82.6746  -143.78  231.03
-87.7618  -146.047  231.03
-93.1379  -147.612  231.03
-98.6706  -148.271  231.03
-105.627  -147.076  231.03
-112.232  -144.915  231.03
-118.865  -142.467  231.03
-125.595  -140.084  231.03
-131.772  -136.301  231.03
-136.981  -131.181  231.03
-141.198  -125.356  231.03
-144.544  -118.901  231.03
-146.448  -111.946  231.03
-147.073  -104.689  231.03
-146.882  -98.0246  231.03
-145.167  -91.4135  231.03
-142.592  -85.2016  231.03
-138.844  -79.6951  231.03
-133.917  -74.9854  231.03
-128.234  -71.2846  231.03
-122.008  -68.6513  231.03
-115.443  -67.2643  231.03
-113.285  -57.2356  262.03
-104.634  -59.1366  262.03
-96.3401  -62.3578  262.03
-88.5696  -66.7174  262.03
-81.1285  -71.7081  262.03
-75.1987  -78.3856  262.03
-70.3587  -86.0021  262.03
-65.4852  -93.4912  262.03
-60.9172  -101.223  262.03
-59.2639  -109.675  262.03
-59.3113  -115.988  262.03
-61.169  -122.161  262.03
-64.4127  -127.975  262.03
-68.0175  -133.427  262.03
-72.6213  -138.044  262.03
-78.0484  -141.907  262.03
-83.6747  -145.284  262.03
-89.6912  -147.852  262.03
-96.1565  -149.595  262.03
-102.737  -149.947  262.03
-110.512  -148.975  262.03
-117.865  -146.215  262.03
-125.35  -143.982  262.03
-132.489  -140.5  262.03
-138.751  -135.566  262.03
-144.048  -129.583  262.03
-148.304  -122.882  262.03
-151.155  -115.471  262.03
-152.601  -107.663  262.03
-153.391  -99.7823  262.03
-152.734  -92.6436  262.03
-151.32  -85.6749  262.03
-148.52  -79.0976  262.03
-144.661  -73.0479  262.03
-139.815  -67.6686  262.03
-133.903  -63.5277  262.03
-127.354  -60.384  262.03
-120.456  -58.336  262.03
-115.905  -51.9699  293.03
-106.029  -52.9181  293.03
-96.5434  -55.8997  293.03
-87.985  -60.8292  293.03
-80.601  -67.4448  293.03
-74.1915  -75.1216  293.03
-68.7443  -83.435  293.03
-63.3078  -91.6509  293.03
-58.4932  -100.128  293.03
-56.4926  -109.728  293.03
-57.4313  -116.692  293.03
-59.8459  -123.419  293.03
-63.2976  -129.527  293.03
-67.774  -134.99  293.03
-73.0741  -139.498  293.03
-78.9421  -143.237  293.03
-85.1708  -146.52  293.03
-91.7051  -149.125  293.03
-98.5609  -150.504  293.03
-105.511  -150.495  293.03
-113.254  -149.109  293.03
-120.978  -147.155  293.03
-128.539  -144.397  293.03
-135.833  -140.874  293.03
-142.025  -136.011  293.03
-147.327  -130.065  293.03
-151.917  -123.458  293.03
-155.28  -116.24  293.03
-157.497  -108.553  293.03
-158.136  -100.556  293.03
-157.894  -92.6589  293.03
-156.289  -84.9419  293.03
-153.674  -77.4703  293.03
-149.849  -70.564  293.03
-144.609  -64.7553  293.03
-138.253  -59.8594  293.03
-131.25  -55.9087  293.03
-123.738  -53.1003  293.03
-112.984  -50.5537  324.03
-103.526  -52.2248  324.03
-94.4327  -55.3179  324.03
-86.1583  -60.0635  324.03
-79.0601  -66.4039  324.03
-72.8006  -73.9123  324.03
-66.7373  -81.4658  324.03
-61.2611  -89.3125  324.03
-56.5877  -97.6023  324.03
-54.6578  -106.843  324.03
-55.2051  -114.306  324.03
-57.6568  -121.452  324.03
-61.1992  -128.195  324.03
-65.9556  -133.983  324.03
-71.7978  -138.594  324.03
-78.2199  -142.492  324.03
-84.8009  -146.087  324.03
-91.925  -148.49  324.03
-99.3166  -149.71  324.03
-106.87  -150.338  324.03
-114.608  -148.824  324.03
-121.978  -145.854  324.03
-129.685  -142.764  324.03
-137.012  -139.03  324.03
-143.475  -133.896  324.03
-149.054  -127.778  324.03
-153.79  -121.133  324.03
-157.435  -113.796  324.03
-159.34  -105.786  324.03
-159.981  -97.5506  324.03
-159.334  -89.4132  324.03
-157.369  -81.4043  324.03
-154.158  -73.8902  324.03
-149.414  -67.0975  324.03
-143.489  -61.2192  324.03
-136.574  -56.9003  324.03
-129.057  -53.3949  324.03
-121.152  -50.9829  324.03
-113.676  -50.19  336.78
-104.06  -51.5316  336.78
-94.5963  -54.5065  336.78
-86.0372  -59.1486  336.78
-78.5533  -65.6562  336.78
-71.358  -72.5307  336.78
-65.1704  -80.1213  336.78
-59.6693  -88.1063  336.78
-54.9274  -96.3928  336.78
-53.1924  -105.93  336.78
-53.9839  -113.389  336.78
-56.4384  -120.596  336.78
-60.1657  -127.089  336.78
-65.1777  -132.58  336.78
-71.0141  -137.185  336.78
-77.3084  -141.179  336.78
-83.9402  -144.619  336.78
-91.0263  -146.885  336.78
-98.3977  -148.472  336.78
-105.869  -148.935  336.78
-113.777  -147.203  336.78
-121.611  -144.422  336.78
-129.522  -141.413  336.78
-136.879  -137.417  336.78
-143.389  -132.099  336.78
-148.945  -125.819  336.78
-153.543  -118.9  336.78
-157.086  -111.34  336.78
-158.904  -103.199  336.78
-159.245  -94.7833  336.78
-158.414  -86.9824  336.78
-156.303  -79.477  336.78
-153.051  -72.2938  336.78
-148.523  -65.7702  336.78
-142.732  -60.6714  336.78
-136.043  -56.5151  336.78
-128.971  -52.9233  336.78
-121.466  -50.6984  336.78
-112.871  -49.5467  349.53
-103.089  -50.8427  349.53
-93.7495  -53.9441  349.53
-84.9659  -58.5824  349.53
-76.7134  -64.3215  349.53
-69.3225  -70.9808  349.53
-63.0282  -78.5729  349.53
-57.5512  -86.6159  349.53
-53.3788  -95.2603  349.53
-51.1299  -104.793  349.53
-52.7179  -112.085  349.53
-55.4134  -119.032  349.53
-59.1968  -125.394  349.53
-64.0833  -130.905  349.53
-69.7642  -135.583  349.53
-75.983  -139.52  349.53
-82.613  -142.743  349.53
-89.6157  -145.088  349.53
-96.8841  -146.792  349.53
-104.272  -147.308  349.53
-112.365  -145.538  349.53
-120.434  -142.946  349.53
-128.424  -139.874  349.53
-135.694  -135.544  349.53
-142.273  -130.204  349.53
-147.791  -123.897  349.53
-152.253  -116.794  349.53
-155.811  -109.17  349.53
-157.351  -100.905  349.53
-157.964  -92.6598  349.53
-156.58  -85.0759  349.53
-154.556  -77.7866  349.53
-151.337  -70.8602  349.53
-146.791  -64.7585  349.53
-140.959  -60.0265  349.53
-134.54  -55.9142  349.53
-127.72  -52.3959  349.53
-120.43  -50.4011  349.53
-108.698  -49.5135  362.28
-99.2187  -50.392  362.28
-90.1782  -53.3511  362.28
-81.5712  -57.3797  362.28
-73.4979  -62.1349  362.28
-66.4517  -68.3321  362.28
-60.6001  -75.9453  362.28
-55.7185  -83.9067  362.28
-51.915  -92.4484  362.28
-49.1117  -101.194  362.28
-50.3601  -108.719  362.28
-53.3241  -115.642  362.28
-57.2604  -122.07  362.28
-62.0498  -127.839  362.28
-67.644  -132.857  362.28
-73.9143  -137.006  362.28
-80.6732  -140.233  362.28
-87.8005  -142.75  362.28
-95.2106  -144.434  362.28
-102.841  -145.28  362.28
-110.821  -143.612  362.28
-118.752  -141.077  362.28
-126.544  -138.015  362.28
-133.756  -133.988  362.28
-140.339  -128.759  362.28
-145.803  -122.436  362.28
-150.029  -115.274  362.28
-153.275  -107.53  362.28
-154.926  -99.3657  362.28
-155.673  -91.0385  362.28
-154.129  -83.4905  362.28
-152.142  -76.1068  362.28
-148.781  -69.1367  362.28
-143.647  -63.3116  362.28
-137.539  -58.7579  362.28
-130.914  -54.7999  362.28
-123.833  -51.7301  362.28
-116.35  -50.0257  362.28
-103.113  -46.9638  375.03
-93.7506  -47.5461  375.03
-84.9015  -50.0219  375.03
-76.3244  -53.2357  375.03
-68.5609  -58.0231  375.03
-62.3745  -65.065  375.03
-57.2325  -72.5785  375.03
-53.041  -80.7535  375.03
-49.568  -89.2244  375.03
-46.862  -97.7837  375.03
-47.5336  -105.44  375.03
-50.487  -112.594  375.03
-54.6773  -119.012  375.03
-59.6861  -124.824  375.03
-65.4073  -129.98  375.03
-71.7649  -134.328  375.03
-78.6498  -137.75  375.03
-85.9723  -140.372  375.03
-93.6031  -142.254  375.03
-101.438  -142.912  375.03
-109.041  -141.152  375.03
-116.672  -138.713  375.03
-124.303  -135.969  375.03
-131.456  -132.748  375.03
-137.701  -127.601  375.03
-142.975  -121.209  375.03
-147.191  -114.317  375.03
-150.094  -106.634  375.03
-151.732  -98.6027  375.03
-152.341  -90.47  375.03
-151.343  -82.4206  375.03
-149.358  -74.5366  375.03
-145.351  -67.4728  375.03
-139.714  -61.8344  375.03
-133.073  -57.3338  375.03
-126.046  -53.8496  375.03
-118.805  -50.4274  375.03
-111.122  -48.0349  375.03
-94.3279  -40.3111  392.03
-85.4531  -41.0563  392.03
-77.0094  -44.0591  392.03
-69.2531  -48.2093  392.03
-62.4987  -53.7142  392.03
-56.6141  -60.6557  392.03
-51.4715  -67.9389  392.03
-46.8014  -75.4897  392.03
-43.037  -83.4673  392.03
-41.0091  -91.8955  392.03
-41.7528  -100.374  392.03
-44.2045  -108.301  392.03
-48.8657  -115.036  392.03
-54.7587  -120.783  392.03
-61.2721  -125.909  392.03
-68.2104  -130.47  392.03
-75.6863  -134.165  392.03
-83.6998  -136.795  392.03
-92.0186  -138.374  392.03
-100.317  -139.183  392.03
-107.33  -137.829  392.03
-114.307  -135.982  392.03
-121.132  -133.742  392.03
-127.601  -130.884  392.03
-133.099  -126.194  392.03
-137.751  -120.485  392.03
-141.741  -114.506  392.03
-144.835  -107.891  392.03
-146.471  -100.842  392.03
-147.124  -93.6083  392.03
-146.913  -84.2992  392.03
-145.153  -75.2068  392.03
-141.024  -66.991  392.03
-134.756  -60.4413  392.03
-127.215  -55.3249  392.03
-119.757  -49.8903  392.03
-111.768  -45.4105  392.03
-103.291  -41.9588  392.03
-88.2626  -32.3376  409.03
-78.7811  -33.9759  409.03
-70.1036  -37.9766  409.03
-62.2352  -43.3809  409.03
-55.0536  -49.9124  409.03
-47.9006  -56.4776  409.03
-40.3593  -62.4572  409.03
-34.0747  -69.7335  409.03
-30.2932  -78.5229  409.03
-29.2065  -88.1625  409.03
-30.4548  -97.0228  409.03
-34.1914  -104.879  409.03
-39.605  -112.157  409.03
-46.6648  -117.848  409.03
-54.5327  -122.323  409.03
-62.559  -126.386  409.03
-70.8927  -130.333  409.03
-79.5803  -133.249  409.03
-88.5964  -134.632  409.03
-97.6736  -134.515  409.03
-104.368  -134.609  409.03
-110.922  -132.973  409.03
-117.241  -130.641  409.03
-123.272  -127.579  409.03
-128.599  -123.396  409.03
-133.08  -118.195  409.03
-136.733  -112.307  409.03
-139.551  -106.037  409.03
-141.195  -99.4164  409.03
-141.624  -92.6522  409.03
-140.438  -83.0725  409.03
-138.293  -73.3489  409.03
-134.59  -64.3815  409.03
-128.221  -57.2384  409.03
-120.904  -50.6367  409.03
-114.634  -43.2877  409.03
-107.133  -37.3314  409.03
-97.9743  -33.8466  409.03
-85.8234  -23.3907  432.947
-75.2703  -24.9295  432.947
-65.6983  -29.338  432.947
-57.9344  -36.3207  432.947
-50.9806  -44.4749  432.947
-42.8325  -51.2805  432.947
-33.5849  -56.3235  432.947
-25.5188  -63.1327  432.947
-20.7597  -72.6682  432.947
-18.65  -83.1595  432.947
-19.8826  -92.8162  432.947
-22.8477  -102.026  432.947
-28.4487  -109.619  432.947
-36.0662  -115.083  432.947
-44.7488  -118.904  432.947
-53.7776  -121.808  432.947
-62.9413  -124.421  432.947
-72.0967  -127.292  432.947
-81.3459  -129.412  432.947
-90.5949  -130.366  432.947
-97.0913  -129.247  432.947
-103.433  -127.413  432.947
-109.704  -125.518  432.947
-115.671  -123.155  432.947
-120.809  -118.977  432.947
-125.297  -113.89  432.947
-129.101  -108.53  432.947
-131.69  -102.339  432.947
-133.071  -95.9061  432.947
-133.262  -89.3635  432.947
-132.789  -79.5003  432.947
-130.908  -69.7276  432.947
-126.476  -60.9967  432.947
-121.052  -52.805  432.947
-116.928  -43.9736  432.947
-112.317  -35.3565  432.947
-104.987  -29.1894  432.947
-95.7107  -25.3543  432.947
-83.9291  -20.21  456.863
-73.1684  -22.3671  456.863
-63.1196  -26.4238  456.863
-54.0678  -32.4576  456.863
-45.5258  -39.7298  456.863
-36.6534  -46.4654  456.863
-28.5616  -53.9092  456.863
-22.0447  -62.8262  456.863
-17.2277  -72.8179  456.863
-14.7793  -83.6145  456.863
-15.664  -92.4891  456.863
-19.6995  -100.495  456.863
-25.7805  -106.979  456.863
-33.2455  -112.107  456.863
-41.4329  -115.649  456.863
-49.8343  -118.067  456.863
-58.2454  -120.814  456.863
-66.78  -123.574  456.863
-75.3485  -125.985  456.863
-84.1388  -126.996  456.863
-90.8032  -127.056  456.863
-97.3358  -125.238  456.863
-103.68  -122.909  456.863
-109.688  -119.959  456.863
-115.063  -115.74  456.863
-119.537  -110.526  456.863
-123.093  -104.778  456.863
-125.982  -98.5891  456.863
-128.041  -92.1212  456.863
-129.022  -85.424  456.863
-128.122  -75.7429  456.863
-125.627  -66.3246  456.863
-122.337  -57.2714  456.863
-119.104  -48.3596  456.863
-115.293  -39.5004  456.863
-110.19  -31.2658  456.863
-102.66  -25.4833  456.863
-93.5595  -21.5001  456.863
-83.9092  -19.4187  480.78
-72.7217  -21.1301  480.78
-62.1294  -24.9227  480.78
-52.1574  -30.2031  480.78
-42.5429  -36.5754  480.78
-33.5671  -43.5228  480.78
-25.9758  -51.9258  480.78
-19.9171  -61.5555  480.78
-16.2697  -72.2775  480.78
-14.5844  -83.5665  480.78
-17.2507  -91.443  480.78
-21.4477  -98.5575  480.78
-27.0419  -104.624  480.78
-33.3547  -109.958  480.78
-40.2983  -114.375  480.78
-47.7441  -117.936  480.78
-55.4273  -120.992  480.78
-63.3797  -123.451  480.78
-71.5591  -125.132  480.78
-79.7454  -126.257  480.78
-87.1095  -125.325  480.78
-94.2368  -123.662  480.78
-101.104  -120.871  480.78
-107.555  -117.351  480.78
-113.027  -112.423  480.78
-117.426  -106.447  480.78
-120.955  -100.009  480.78
-123.788  -93.1648  480.78
-125.475  -85.9869  480.78
-126.053  -78.6449  480.78
-125.07  -69.8524  480.78
-123.077  -61.2513  480.78
-120.521  -52.791  480.78
-117.393  -44.556  480.78
-113.389  -36.7254  480.78
-108.194  -29.6895  480.78
-100.928  -24.7825  480.78
-92.5931  -21.2177  480.78
-80.7393  -19.8372  504.697
-70.088  -21.6051  504.697
-59.7707  -24.5012  504.697
-49.9928  -28.9581  504.697
-40.8374  -34.8512  504.697
-32.5332  -41.8508  504.697
-25.5354  -50.0637  504.697
-20.049  -59.3302  504.697
-16.3136  -69.434  504.697
-14.1424  -79.986  504.697
-15.4135  -88.1328  504.697
-17.8548  -95.9706  504.697
-21.5484  -103.256  504.697
-26.2809  -109.954  504.697
-32.2321  -115.357  504.697
-39.1031  -119.606  504.697
-46.4406  -122.963  504.697
-54.2489  -124.703  504.697
-62.2596  -126.114  504.697
-70.3122  -126.307  504.697
-78.8596  -126.022  504.697
-87.2458  -124.411  504.697
-95.3693  -122.066  504.697
-103.076  -118.862  504.697
-110.049  -114.118  504.697
-116.056  -108.121  504.697
-120.91  -101.197  504.697
-124.446  -93.3699  504.697
-126.564  -85.1221  504.697
-126.74  -76.7121  504.697
-126.533  -67.8367  504.697
-124.392  -59.0484  504.697
-121.026  -50.6732  504.697
-116.868  -42.6066  504.697
-112.446  -34.8617  504.697
-106.064  -29.2618  504.697
-97.9789  -25.2362  504.697
-89.5114  -21.9832  504.697
-76.9069  -19.8322  528.613
-65.9609  -21.0414  528.613
-55.129  -23.1366  528.613
-44.7761  -27.1699  528.613
-35.427  -33.4061  528.613
-27.1789  -40.728  528.613
-20.1867  -49.2745  528.613
-15.1888  -59.1201  528.613
-12.3447  -69.8278  528.613
-11.4961  -80.895  528.613
-11.771  -88.4887  528.613
-13.1773  -95.9391  528.613
-16.2921  -103.042  528.613
-20.1018  -109.619  528.613
-25.1855  -115.22  528.613
-31.2444  -119.85  528.613
-37.738  -123.694  528.613
-44.7233  -126.729  528.613
-52.0649  -128.474  528.613
-59.6007  -128.951  528.613
-69.5296  -128.517  528.613
-79.3084  -126.326  528.613
-89.0718  -124.03  528.613
-98.5429  -121.04  528.613
-107.668  -116.919  528.613
-115.507  -110.937  528.613
-121.828  -103.176  528.613
-126.993  -94.4634  528.613
-129.668  -84.7982  528.613
-130.24  -74.6253  528.613
-129.391  -65.1239  528.613
-126.64  -56.0995  528.613
-122.267  -47.7679  528.613
-117.113  -39.8461  528.613
-111.531  -32.5292  528.613
-103.871  -27.3192  528.613
-95.2789  -23.3322  528.613
-86.2876  -20.8507  528.613
-75.2499  -16.9796  552.53
-63.7441  -18.9056  552.53
-52.4414  -21.1609  552.53
-41.7938  -25.4423  552.53
-31.9409  -31.9491  552.53
-23.0815  -39.4121  552.53
-15.789  -48.5136  552.53
-10.3833  -58.8537  552.53
-7.57312  -70.1772  552.53
-6.75389  -81.8741  552.53
-7.14799  -89.914  552.53
-8.6503  -97.8255  552.53
-11.9287  -105.175  552.53
-16.7381  -111.731  552.53
-22.394  -117.464  552.53
-28.7559  -122.311  552.53
-35.856  -126.151  552.53
-43.3629  -128.875  552.53
-51.1718  -130.755  552.53
-59.1487  -131.212  552.53
-69.4166  -130.25  552.53
-79.5798  -128.124  552.53
-89.6568  -125.242  552.53
-99.3634  -121.529  552.53
-108.676  -117.007  552.53
-117.051  -111.001  552.53
-123.947  -103.291  552.53
-129.098  -94.2768  552.53
-132.622  -84.4841  552.53
-133.788  -74.0772  552.53
-133.045  -63.6884  552.53
-130.009  -54.0893  552.53
-125.456  -44.8444  552.53
-120.186  -36.0456  552.53
-113.07  -29.7061  552.53
-104.399  -24.7556  552.53
-95.0104  -20.8015  552.53
-85.2276  -18.3252  552.53
-72.0809  -12.4527  576.447
-60.4839  -15.5448  576.447
-48.7982  -18.6182  576.447
-37.6395  -23.1819  576.447
-27.5748  -29.8673  576.447
-18.7728  -38.0037  576.447
-11.4281  -47.5365  576.447
-5.82959  -58.1866  576.447
-2.9443  -69.8527  576.447
-2.23464  -81.9186  576.447
-2.68513  -90.6989  576.447
-5.1054  -99.1933  576.447
-9.38298  -106.99  576.447
-14.8799  -113.853  576.447
-21.479  -119.677  576.447
-28.9333  -124.352  576.447
-36.9059  -127.953  576.447
-45.2247  -130.89  576.447
-53.8512  -132.228  576.447
-62.6237  -132.371  576.447
-73.092  -131.153  576.447
-83.1979  -128.134  576.447
-93.1653  -124.384  576.447
-103.065  -120.493  576.447
-112.274  -115.491  576.447
-120.383  -108.804  576.447
-127.325  -100.738  576.447
-132.965  -91.8658  576.447
-136.346  -81.8313  576.447
-137.508  -71.2179  576.447
-136.472  -60.2556  576.447
-132.88  -49.8625  576.447
-128  -39.8673  576.447
-121.848  -30.6415  576.447
-113.761  -23.9365  576.447
-104.13  -18.7938  576.447
-93.7478  -15.0997  576.447
-82.976  -13.3089  576.447
-69.9291  -6.52829  600.363
-58.1291  -10.8963  600.363
-46.3827  -14.6852  600.363
-35.1211  -20.1351  600.363
-25.0002  -28.175  600.363
-15.8028  -36.5609  600.363
-8.05771  -46.7417  600.363
-2.67041  -58.114  600.363
0.360199  -70.4243  600.363
1.38671  -83.0807  600.363
0.225077  -92.5238  600.363
-3.05139  -101.618  600.363
-7.88445  -109.941  600.363
-14.5518  -116.755  600.363
-22.6277  -121.581  600.363
-31.2118  -125.627  600.363
-39.691  -129.91  600.363
-48.953  -131.615  600.363
-58.4331  -132.695  600.363
-67.7118  -134.001  600.363
-77.6124  -130.898  600.363
-87.8318  -128.041  600.363
-97.8716  -124.543  600.363
-107.49  -120.22  600.363
-115.823  -113.926  600.363
-123.585  -106.752  600.363
-130.666  -98.9921  600.363
-136.01  -89.9757  600.363
-139.023  -79.8569  600.363
-140.114  -69.2808  600.363
-138.902  -57.3917  600.363
-134.946  -46.3678  600.363
-129.35  -35.896  600.363
-122.933  -26.2014  600.363
-114.601  -18.8858  600.363
-104.419  -13.1111  600.363
-93.2731  -9.36955  600.363
-81.7063  -7.75632  600.363
-73.3313  -1.53763  624.28
-60.3011  -4.47022  624.28
-47.6327  -8.90589  624.28
-35.7611  -14.7752  624.28
-25.308  -23.6661  624.28
-15.6789  -33.1047  624.28
-7.33661  -43.7216  624.28
-1.09552  -55.6451  624.28
2.52009  -68.6441  624.28
3.70574  -81.9362  624.28
2.88691  -92.0019  624.28
-0.310403  -101.603  624.28
-5.78903  -110.089  624.28
-12.9546  -117.244  624.28
-21.5053  -122.432  624.28
-30.7003  -126.598  624.28
-39.8446  -130.915  624.28
-49.6402  -133.076  624.28
-59.7231  -134.15  624.28
-69.797  -135.174  624.28
-80.1142  -132.87  624.28
-90.3493  -129.808  624.28
-100.156  -125.826  624.28
-109.382  -120.921  624.28
-117.736  -114.372  624.28
-125.537  -107.105  624.28
-132.456  -99.2235  624.28
-137.484  -89.873  624.28
-140.175  -79.521  624.28
-140.881  -68.9756  624.28
-140.018  -57.0877  624.28
-136.709  -45.812  624.28
-131.587  -34.9644  624.28
-125.325  -24.7841  624.28
-117.465  -16.2007  624.28
-107.59  -9.7619  624.28
-96.7053  -5.11279  624.28
-85.2137  -2.77607  624.28
-69.1592  3.38756  648.197
-56.8518  -0.933531  648.197
-44.7798  -5.79668  648.197
-33.0657  -11.2943  648.197
-23.3911  -20.7684  648.197
-14.8371  -30.9354  648.197
-7.14439  -41.8169  648.197
-0.994018  -53.5267  648.197
2.87425  -66.1291  648.197
5.0803  -79.1948  648.197
3.84278  -89.5655  648.197
0.870995  -99.6561  648.197
-4.50263  -108.753  648.197
-12.1259  -115.658  648.197
-20.7662  -121.364  648.197
-29.8501  -126.314  648.197
-39.481  -130.226  648.197
-49.4877  -133.187  648.197
-59.8387  -134.569  648.197
-70.3921  -135.216  648.197
-81.1494  -133.653  648.197
-91.7214  -130.809  648.197
-101.968  -126.978  648.197
-111.48  -121.813  648.197
-119.99  -115.025  648.197
-127.755  -107.356  648.197
-134.333  -98.8611  648.197
-138.623  -88.7774  648.197
-141.096  -78.0712  648.197
-142.364  -67.2411  648.197
-141.137  -54.5603  648.197
-137.885  -42.2185  648.197
-132.348  -30.7441  648.197
-125.157  -20.1409  648.197
-117.12  -10.5413  648.197
-106.276  -4.44457  648.197
-94.1844  -0.655435  648.197
-81.8938  2.29318  648.197
-72.7164  5.40958  672.113
-58.9695  2.63379  672.113
-46.0604  -2.42473  672.113
-33.3628  -8.34185  672.113
-22.6359  -17.6891  672.113
-13.7879  -29.0011  672.113
-5.96079  -40.916  672.113
0.260768  -53.5907  672.113
4.27243  -67.0904  672.113
5.67653  -81.2682  672.113
4.29468  -91.1435  672.113
0.750304  -100.639  672.113
-4.66293  -109.236  672.113
-11.6838  -116.478  672.113
-19.9653  -122.016  672.113
-28.9085  -126.568  672.113
-38.0769  -130.71  672.113
-47.8911  -132.735  672.113
-57.79  -134.564  672.113
-67.8013  -135.339  672.113
-79.1184  -134.301  672.113
-90.1983  -131.882  672.113
-101.081  -128.892  672.113
-111.296  -123.846  672.113
-120.344  -117.034  672.113
-128.089  -108.702  672.113
-134.414  -99.1537  672.113
-139.079  -88.8129  672.113
-141.968  -77.8738  672.113
-143.065  -66.5184  672.113
-141.911  -53.9841  672.113
-138.217  -42.0489  672.113
-132.532  -30.817  672.113
-126.075  -20.0725  672.113
-118.929  -10.1755  672.113
-108.747  -2.66563  672.113
-97.1193  1.52689  672.113
-85.1285  3.71478  672.113
-75.5938  14.6183  696.03
-59.6877  20.1828  696.03
-50.107  15.6081  696.03
-46.0909  3.47434  696.03
-35.9881  -7.0678  696.03
-22.751  -17.1791  696.03
-12.6843  -30.2237  696.03
-4.53171  -44.3702  696.03
0.822468  -59.7876  696.03
3.92334  -75.6858  696.03
4.64541  -85.4793  696.03
2.43311  -95.5714  696.03
-2.96356  -105.365  696.03
-9.6177  -114.022  696.03
-17.7956  -120.906  696.03
-27.3596  -126.041  696.03
-37.4973  -129.891  696.03
-47.7496  -132.673  696.03
-58.3139  -134.381  696.03
-69.0983  -135.397  696.03
-81.6784  -134.481  696.03
-93.9242  -131.557  696.03
-105.885  -127.865  696.03
-117.153  -123.38  696.03
-126.994  -115.958  696.03
-135.826  -106.729  696.03
-142.885  -96.3892  696.03
-147.24  -85.0087  696.03
-150.912  -74.2049  696.03
-150.155  -62.1746  696.03
-148.04  -49.934  696.03
-143.102  -38.6492  696.03
-136.522  -27.8728  696.03
-129.338  -17.4894  696.03
-119.982  -9.26474  696.03
-109.341  -2.49243  696.03
-97.8323  2.65677  696.03
-86.6307  8.43756  696.03
