-88.797100 -80.671800 116.624000
-106.456000 -87.865900 138.030000
-114.240000 -81.418500 169.030000
-111.249000 -75.473600 200.030000
-108.699000 -66.788700 231.030000
-113.285000 -57.235600 262.030000
-115.905000 -51.969900 293.030000
-112.984000 -50.553700 324.030000
-113.676000 -50.190000 336.780000
-112.871000 -49.546700 349.530000
-108.698000 -49.513500 362.280000
-103.113000 -46.963800 375.030000
-94.327900 -40.311100 392.030000
-88.262600 -32.337600 409.030000
-85.823400 -23.390700 432.947000
-83.929100 -20.210000 456.863000
-83.909200 -19.418700 480.780000
-80.739300 -19.837200 504.697000
-76.906900 -19.832200 528.613000
-75.249900 -16.979600 552.530000
-72.080900 -12.452700 576.447000
-69.929100 -6.528290 600.363000
-73.331300 -1.537630 624.280000
-69.159200 3.387560 648.197000
-72.716400 5.409580 672.113000
s
-52.191900 -104.059000 116.624000
-62.158000 -111.341000 138.030000
-64.054000 -113.510000 169.030000
-63.868500 -110.948000 200.030000
-61.301500 -113.041000 231.030000
-59.263900 -109.675000 262.030000
-56.492600 -109.728000 293.030000
-54.657800 -106.843000 324.030000
-53.192400 -105.930000 336.780000
-51.129900 -104.793000 349.530000
-49.111700 -101.194000 362.280000
-46.862000 -97.783700 375.030000
-41.009100 -91.895500 392.030000
-29.206500 -88.162500 409.030000
-18.650000 -83.159500 432.947000
-14.779300 -83.614500 456.863000
-14.584400 -83.566500 480.780000
-14.142400 -79.986000 504.697000
-11.496100 -80.895000 528.613000
-6.753890 -81.874100 552.530000
-2.234640 -81.918600 576.447000
1.386710 -83.080700 600.363000
3.705740 -81.936200 624.280000
5.080300 -79.194800 648.197000
5.676530 -81.268200 672.113000
s
-101.253000 -140.108000 116.624000
-89.835700 -139.019000 138.030000
-93.223800 -142.643000 169.030000
-95.659400 -145.758000 200.030000
-98.670600 -148.271000 231.030000
-102.737000 -149.947000 262.030000
-105.511000 -150.495000 293.030000
-106.870000 -150.338000 324.030000
-105.869000 -148.935000 336.780000
-104.272000 -147.308000 349.530000
-102.841000 -145.280000 362.280000
-101.438000 -142.912000 375.030000
-100.317000 -139.183000 392.030000
-97.673600 -134.515000 409.030000
-90.594900 -130.366000 432.947000
-84.138800 -126.996000 456.863000
-79.745400 -126.257000 480.780000
-70.312200 -126.307000 504.697000
-59.600700 -128.951000 528.613000
-59.148700 -131.212000 552.530000
-62.623700 -132.371000 576.447000
-67.711800 -134.001000 600.363000
-69.797000 -135.174000 624.280000
-70.392100 -135.216000 648.197000
-67.801300 -135.339000 672.113000
s
-136.978000 -89.852600 116.624000
-137.670000 -100.346000 138.030000
-138.542000 -102.378000 169.030000
-142.466000 -108.227000 200.030000
-147.073000 -104.689000 231.030000
-153.391000 -99.782300 262.030000
-158.136000 -100.556000 293.030000
-159.981000 -97.550600 324.030000
-159.245000 -94.783300 336.780000
-157.964000 -92.659800 349.530000
-155.673000 -91.038500 362.280000
-152.341000 -90.470000 375.030000
-147.124000 -93.608300 392.030000
-141.624000 -92.652200 409.030000
-133.262000 -89.363500 432.947000
-129.022000 -85.424000 456.863000
-126.053000 -78.644900 480.780000
-126.740000 -76.712100 504.697000
-130.240000 -74.625300 528.613000
-133.788000 -74.077200 552.530000
-137.508000 -71.217900 576.447000
-140.114000 -69.280800 600.363000
-140.881000 -68.975600 624.280000
-142.364000 -67.241100 648.197000
-143.065000 -66.518400 672.113000
s
