-20.9923  -231.389  778.793
-16.5192  -226.211  779.355
-12.8955  -220.417  779.732
-10.6253  -213.961  779.828
-10.0314  -207.174  779.602
-11.3267  -200.463  779.034
-19.0141  -197.362  777.476
-27.2961  -196.787  775.933
-35.5946  -196.273  774.391
-43.7787  -196.358  772.899
-50.6264  -200.997  771.876
-56.1149  -207.437  771.191
-59.367  -215.306  770.984
-58.6481  -223.629  771.526
-55.5733  -231.581  772.481
-50.9984  -238.685  773.668
-44.9142  -241.982  774.943
-38.2314  -242.802  776.205
-31.9031  -239.978  777.222
-26.3322  -235.827  778.036
-19.0956  -230.24  756.942
-13.445  -224.33  757.433
-9.61604  -217.127  757.66
-7.46452  -209.233  757.663
-7.32596  -201.063  757.413
-9.80375  -193.263  756.859
-17.2723  -188.547  755.802
-25.5728  -185.927  754.713
-34.1704  -184.509  753.627
-41.6694  -188.953  752.865
-48.2254  -194.787  752.263
-53.9016  -200.634  751.767
-58.3889  -207.405  751.446
-60.9201  -215.018  751.388
-59.4139  -222.805  751.824
-55.4476  -229.921  752.536
-48.9833  -235.095  753.487
-41.4286  -238.627  754.516
-33.3762  -238.525  755.486
-25.778  -235.125  756.294
-11.128  -223.929  735.578
-5.18108  -216.365  735.812
-1.67105  -207.376  735.877
-0.311326  -197.802  735.804
-1.19898  -188.213  735.595
-4.40308  -179.076  735.255
-13.0725  -173.268  734.641
-23.225  -170.538  733.988
-32.6814  -173.171  733.463
-39.9477  -180.622  733.148
-46.163  -189.145  732.913
-51.7724  -196.731  732.699
-57.422  -204.297  732.483
-60.7503  -212.94  732.423
-60.0731  -222.197  732.614
-55.2346  -230.299  733.035
-46.6577  -234.749  733.622
-37.149  -236.419  734.219
-27.7128  -233.785  734.743
-18.8394  -229.904  735.212
-4.13481  -218.721  713.854
1.82343  -210.204  713.854
5.87342  -200.654  713.854
7.43539  -190.463  713.854
5.56126  -180.191  713.854
3.64165  -169.981  713.854
-5.82439  -165.554  713.854
-16.5282  -165.162  713.854
-26.5398  -167.968  713.854
-33.0279  -176.279  713.854
-38.7997  -185.28  713.854
-44.4625  -194.138  713.854
-50.1269  -203.015  713.854
-55.7564  -211.857  713.854
-58.7491  -221.68  713.854
-54.761  -231.307  713.854
-44.5028  -236.16  713.854
-33.3818  -235.721  713.854
-22.6529  -231.685  713.854
-12.5424  -226.416  713.854
-1.36767  -216.069  675.904
5.4457  -206.767  675.904
11.6059  -197.113  675.904
11.4283  -185.593  675.904
10.2574  -174.117  675.904
8.57049  -162.717  675.904
-2.1498  -158.704  675.904
-12.9882  -160.386  675.904
-19.627  -170.095  675.904
-25.7647  -180.156  675.904
-31.8692  -190.213  675.904
-37.0552  -198.743  675.904
-42.2116  -207.278  675.904
-47.4089  -215.805  675.904
-52.7113  -224.309  675.904
-51.183  -233.424  675.904
-40.8205  -236.942  675.904
-30.6171  -232.318  675.904
-20.5383  -227.353  675.904
-10.4706  -222.389  675.904
-11.2486  -207.503  637.954
-2.94847  -203.815  637.954
2.75241  -196.929  637.954
7.47284  -189.188  637.954
12.1936  -181.392  637.954
12.5055  -172.57  637.954
4.08372  -169.027  637.954
-4.96253  -169.714  637.954
-12.5798  -174.907  637.954
-20.1783  -180.13  637.954
-27.7261  -185.562  637.954
-36.2107  -191.579  637.954
-44.6636  -197.631  637.954
-53.293  -203.487  637.954
-58.192  -211.936  637.954
-54.6507  -221.724  637.954
-45.4704  -221.06  637.954
-36.8633  -217.877  637.954
-28.3241  -214.423  637.954
-19.7874  -210.96  637.954
-18.5945  -179.166  598.853
