-47.7209 184.786 1244.42
-52.698 184.433 1245.44
-57.5048 183.334 1246.09
-62.1376 181.591 1246.41
-66.5928 179.306 1246.47
-70.8668 176.579 1246.32
-74.9561 173.511 1246.02
-78.857 170.205 1245.63
-82.566 166.761 1245.21
-86.0853 163.263 1244.8
-89.4416 159.723 1244.44
-92.6671 156.137 1244.13
-95.7943 152.499 1243.89
-98.8557 148.804 1243.74
-101.884 145.046 1243.7
-104.91 141.221 1243.78
-107.969 137.323 1244.01
-111.073 133.349 1244.37
-114.163 129.296 1244.85
-117.163 125.164 1245.38
-119.996 120.953 1245.92
-122.584 116.662 1246.41
-124.85 112.291 1246.82
-126.717 107.839 1247.08
-128.108 103.306 1247.15
-128.971 98.6934 1247
-129.353 94.0093 1246.66
-129.328 89.2646 1246.2
-128.968 84.4697 1245.65
-128.347 79.6352 1245.1
-127.536 74.7716 1244.57
-126.608 69.8894 1244.15
-125.637 64.999 1243.87
-124.686 60.1093 1243.78
-123.779 55.2219 1243.85
-122.932 50.3365 1244.03
-122.16 45.4531 1244.29
-121.477 40.5714 1244.58
-120.899 35.6913 1244.85
-120.442 30.8126 1245.06
-120.119 25.9351 1245.17
-119.945 21.0588 1245.14
-119.924 16.1835 1245
-120.057 11.309 1244.8
-120.348 6.43535 1244.58
-120.797 1.56239 1244.38
-121.408 -3.30997 1244.25
-122.182 -8.18182 1244.22
-123.121 -13.0533 1244.34
-124.213 -17.9234 1244.64
-125.374 -22.7874 1245.07
-126.51 -27.6393 1245.6
-127.522 -32.4735 1246.15
-128.313 -37.2839 1246.69
-128.787 -42.0648 1247.15
-128.846 -46.8103 1247.49
-128.394 -51.5146 1247.65
-127.363 -56.1716 1247.6
-125.806 -60.774 1247.37
-123.809 -65.3143 1247.01
-121.454 -69.7852 1246.58
-118.826 -74.1789 1246.12
-116.008 -78.4882 1245.69
-113.083 -82.7055 1245.35
-110.137 -86.8232 1245.13
-107.231 -90.8354 1245.09
-104.344 -94.7412 1245.23
-101.432 -98.5414 1245.55
-98.4521 -102.237 1246.03
-95.361 -105.828 1246.69
-92.1156 -109.315 1247.5
-88.6726 -112.7 1248.48
-84.989 -115.982 1249.61
-81.0364 -119.15 1250.86
-76.8464 -122.144 1252.05
-72.4653 -124.888 1253
-67.9397 -127.309 1253.48
-63.3159 -129.335 1253.32
-58.6403 -130.89 1252.29
-53.9595 -131.902 1250.2
-49.3202 -132.297 1246.85
