14.2552 54.3525 1157.5
14.2972 63.7598 1157.17
14.1009 73.1116 1156.86
13.5484 82.4315 1156.56
12.5221 91.7429 1156.27
10.904 101.069 1155.96
8.57998 110.385 1155.64
5.44897 119.463 1155.32
1.41352 128.028 1155
-3.6239 135.804 1154.72
-9.76079 142.515 1154.48
-17.0363 147.966 1154.29
-25.2565 152.283 1154.16
-34.169 155.672 1154.08
-43.5213 158.342 1154.04
-53.0611 160.498 1154.03
-62.572 162.272 1154.04
-71.9808 163.492 1154.08
-81.2504 163.909 1154.16
-90.3435 163.277 1154.26
-99.2231 161.347 1154.4
-107.836 157.949 1154.58
-116.068 153.23 1154.79
-123.789 147.414 1155.03
-130.868 140.724 1155.3
-137.174 133.385 1155.59
-142.599 125.59 1155.89
-147.113 117.412 1156.2
-150.707 108.894 1156.51
-153.372 100.077 1156.8
-155.101 91.0049 1157.06
-155.926 81.7221 1157.29
-156.045 72.286 1157.49
-155.699 62.7565 1157.69
-155.127 53.1934 1157.9
-154.571 43.6567 1158.12
-154.221 34.1918 1158.38
-154.074 24.785 1158.65
-154.079 15.4082 1158.92
-154.183 6.03338 1159.17
-154.334 -3.36773 1159.38
-154.459 -12.8105 1159.53
-154.388 -22.2596 1159.65
-153.931 -31.6666 1159.75
-152.896 -40.9835 1159.85
-151.093 -50.1619 1159.97
-148.372 -59.1485 1160.13
-144.747 -67.8688 1160.31
-140.276 -76.2428 1160.49
-135.015 -84.191 1160.66
-129.02 -91.6334 1160.79
-122.351 -98.4673 1160.87
-115.076 -104.498 1160.91
-107.266 -109.507 1160.93
-98.9947 -113.277 1160.94
-90.3321 -115.59 1160.96
-81.3515 -116.313 1161
-72.1307 -115.651 1161.05
-62.7489 -113.895 1161.1
-53.2854 -111.334 1161.13
-43.8194 -108.26 1161.12
-34.4682 -104.877 1161.08
-25.5022 -101.052 1161
-17.2299 -96.5647 1160.88
-9.95973 -91.1973 1160.75
-4.00025 -84.7305 1160.61
0.443255 -77.0354 1160.46
3.5783 -68.3428 1160.32
5.71562 -58.9736 1160.18
7.16593 -49.2487 1160.05
8.23995 -39.4889 1159.93
9.19612 -29.9474 1159.83
10.0838 -20.6074 1159.73
10.8999 -11.3841 1159.61
11.6415 -2.19295 1159.45
12.3057 7.05057 1159.24
12.8886 16.4098 1158.95
13.383 25.8628 1158.61
13.7809 35.3664 1158.24
14.0744 44.8774 1157.86
14.2552 54.3518 1157.5
