28.6931 -239.001 807.036
28.5078 -239.112 808.037
28.3422 -239.239 809.037
28.293 -239.462 810.038
28.2438 -239.684 811.039
27.524 -239.665 812.04
26.7797 -239.632 813.04
26.5439 -239.674 814.041
26.3081 -239.716 815.042
25.8381 -239.994 816.043
25.3338 -240.306 817.043
25.4705 -240.386 818.044
25.6126 -240.464 819.045
25.049 -240.51 820.046
24.4537 -240.554 821.046
24.2275 -240.357 822.047
24.0246 -240.143 823.048
23.6945 -240.473 824.049
23.3203 -240.991 825.049
23.2328 -241.283 826.05
23.1867 -241.542 827.051
22.6669 -241.848 828.052
21.9284 -242.176 829.052
21.7595 -242.337 830.053
21.7469 -242.451 831.054
21.4611 -242.719 832.055
21.0852 -243.036 833.055
20.6519 -243.295 834.056
20.178 -243.512 835.057
19.7831 -243.949 836.058
19.4178 -244.468 837.058
19.0843 -244.784 838.059
18.7803 -244.913 839.06
18.3802 -245.306 840.061
17.8857 -245.957 841.061
17.4009 -246.522 842.062
16.9276 -246.984 843.063
16.3636 -247.552 844.064
15.6796 -248.26 845.064
15.1235 -248.761 846.065
14.7629 -248.948 847.066
14.2598 -249.408 848.067
13.5177 -250.329 849.067
12.9281 -250.972 850.068
12.6426 -251.062 851.069
12.2578 -251.201 852.07
11.6438 -251.452 853.07
11.1203 -251.589 854.071
10.8391 -251.421 855.072
10.4623 -251.501 856.073
9.94618 -251.943 857.073
9.47802 -252.348 858.074
9.19579 -252.609 859.075
8.85908 -252.814 860.076
8.2892 -252.777 861.076
7.82064 -252.606 862.077
7.61149 -252.089 863.078
7.34681 -251.716 864.078
6.6523 -252.446 865.079
6.06401 -252.821 866.08
5.87817 -251.856 867.081
5.66899 -250.996 868.081
5.05459 -251.966 869.082
4.44317 -252.923 870.083
4.01722 -253.045 871.084
3.59127 -253.166 872.084
2.9407 -253.123 873.085
2.28728 -253.078 874.086
1.97077 -253.057 875.087
1.67054 -253.037 876.087
1.01135 -253.159 877.088
0.323285 -253.292 878.089
0.00504085 -253.355 879.09
-0.267043 -253.41 880.09
-0.888895 -253.484 881.091
-1.56416 -253.562 882.092
-2.10036 -253.506 883.093
-2.60789 -253.423 884.093
-3.28172 -253.397 885.094
-3.96511 -253.374 886.095
-4.2551 -253.223 887.096
-4.4216 -253.031 888.096
-4.85998 -253.003 889.097
-5.38915 -253.031 890.098
-5.95489 -253.124 891.099
-6.53621 -253.246 892.099
-7.08848 -253.274 893.1
-7.62714 -253.258 894.101
-8.08692 -253.088 895.102
-8.50199 -252.83 896.102
-9.00597 -252.731 897.103
-9.56571 -252.733 898.104
-10.033 -252.67 899.105
-10.4321 -252.56 900.105
-11.0161 -252.482 901.106
-11.754 -252.431 902.107
-12.2153 -252.178 903.108
-12.5358 -251.823 904.108
-13.0769 -251.808 905.109
-13.8544 -252.158 906.11
-14.371 -252.168 907.111
-14.564 -251.755 908.111
-14.9341 -251.547 909.112
-15.5501 -251.624 910.113
-16.0701 -251.647 911.114
-16.4379 -251.584 912.114
-16.8822 -251.581 913.115
-17.4655 -251.687 914.116
-17.9665 -251.669 915.117
-18.291 -251.385 916.117
-18.7186 -251.274 917.118
-19.3961 -251.582 918.119
-19.8566 -251.628 919.12
-20.0012 -251.29 920.12
-20.254 -250.978 921.121
-20.8841 -250.758 922.122
-21.4468 -250.543 923.122
-21.7373 -250.349 924.123
-22.0874 -250.197 925.124
-22.7392 -250.255 926.125
-23.3544 -250.33 927.125
-23.7213 -250.525 928.126
-24.1019 -250.702 929.127
-24.606 -250.723 930.128
-25.0913 -250.711 931.128
-25.3165 -250.251 932.129
-25.5575 -249.816 933.13
-26.2007 -250.013 934.131
-26.8398 -250.205 935.131
-27.0913 -249.989 936.132
-27.3428 -249.773 937.133
-27.8549 -249.824 938.134
-28.3731 -249.882 939.134
-28.7068 -249.72 940.135
-29.0382 -249.544 941.136
-29.5594 -249.367 942.137
-30.0805 -249.191 943.137
-30.4575 -249.002 944.138
-30.814 -248.812 945.139
-31.3606 -248.908 946.14
-31.9399 -249.054 947.14
-32.3216 -248.957 948.141
-32.6569 -248.803 949.142
-33.1193 -248.886 950.143
-33.5919 -248.989 951.143
-33.9942 -248.792 952.144
-34.3729 -248.495 953.145
-34.8684 -248.382 954.146
-35.4091 -248.34 955.146
-35.867 -248.234 956.147
-36.2867 -248.097 957.148
-36.7668 -248.041 958.149
-37.2785 -248.026 959.149
-37.6876 -247.885 960.15
-38.0343 -247.667 961.151
-38.5314 -247.431 962.152
-39.1314 -247.183 963.152
-39.6174 -246.976 964.153
-40.0159 -246.8 965.154
-40.4591 -246.774 966.155
-40.9216 -246.812 967.155
-41.2724 -246.73 968.156
-41.5085 -246.523 969.157
-41.8867 -246.432 970.158
-42.429 -246.476 971.158
-42.8808 -246.368 972.159
-43.2163 -246.065 973.16
-43.6139 -245.909 974.161
-44.104 -245.971 975.161
-44.5218 -245.931 976.162
-44.8139 -245.712 977.163
-45.1565 -245.582 978.164
-45.5969 -245.625 979.164
-45.9953 -245.566 980.165
-46.2983 -245.277 981.166
-46.6657 -245.092 982.167
-47.2042 -245.181 983.167
-47.664 -245.169 984.168
-47.8725 -244.834 985.169
-48.1509 -244.564 986.169
-48.6873 -244.532 987.17
-49.1631 -244.485 988.171
-49.3552 -244.372 989.172
-49.5831 -244.254 990.172
-50.0143 -244.107 991.173
-50.4229 -243.943 992.174
-50.653 -243.647 993.175
-50.9067 -243.377 994.175
-51.4009 -243.385 995.176
-51.8538 -243.326 996.177
-52.1282 -242.978 997.178
-52.4029 -242.638 998.178
-52.6945 -242.781 999.179
-52.986 -242.923 1000.18
-53.3324 -242.443 1001.18
-53.6819 -242 1002.18
-54.0579 -241.992 1003.18
-54.434 -241.984 1004.18
-54.7324 -241.589 1005.18
-55.0244 -241.163 1006.18
-55.3042 -241.216 1007.19
-55.5825 -241.326 1008.19
-55.8488 -241.032 1009.19
-56.1132 -240.67 1010.19
-56.5737 -240.708 1011.19
-57.0751 -240.83 1012.19
-57.3093 -240.46 1013.19
-57.5261 -240.057 1014.19
-57.9274 -240 1015.19
-58.3836 -240.046 1016.19
-58.6992 -239.809 1017.19
-58.966 -239.473 1018.19
-59.3483 -239.532 1019.19
-59.7793 -239.757 1020.19
-60.0428 -239.518 1021.2
-60.2257 -239.056 1022.2
-60.611 -238.879 1023.2
-61.1119 -238.866 1024.2
-61.4778 -238.597 1025.2
-61.7566 -238.164 1026.2
-62.1553 -238.132 1027.2
-62.6408 -238.392 1028.2
-62.9828 -238.3 1029.2
-63.203 -237.911 1030.2
-63.5761 -237.81 1031.2
-64.0944 -237.984 1032.2
-64.5471 -237.864 1033.2
-64.9296 -237.432 1034.21
-65.3498 -237.269 1035.21
-65.8169 -237.439 1036.21
-66.2331 -237.366 1037.21
-66.5753 -236.94 1038.21
-66.9458 -236.756 1039.21
-67.3627 -236.97 1040.21
-67.789 -236.939 1041.21
-68.2329 -236.455 1042.21
-68.7482 -236.244 1043.21
-69.3469 -236.349 1044.21
-69.8653 -236.284 1045.21
-70.1905 -235.809 1046.21
-70.5415 -235.507 1047.21
-70.9682 -235.713 1048.22
-71.3869 -235.776 1049.22
-71.7783 -235.348 1050.22
-72.2013 -235.032 1051.22
-72.7522 -235.171 1052.22
-73.2876 -235.205 1053.22
-73.7418 -234.681 1054.22
-74.2235 -234.24 1055.22
-74.8871 -234.341 1056.22
-75.5143 -234.403 1057.22
-75.785 -234.079 1058.22
-76.0899 -233.838 1059.22
-76.5068 -233.87 1060.22
-76.9248 -233.886 1061.23
-77.3689 -233.445 1062.23
-77.8152 -233.011 1063.23
-78.386 -232.992 1064.23
-78.9568 -232.974 1065.23
-79.2562 -232.629 1066.23
-79.5467 -232.273 1067.23
-80.0728 -232.197 1068.23
-80.614 -232.139 1069.23
-80.9227 -231.804 1070.23
-81.2059 -231.439 1071.23
-81.7543 -231.306 1072.23
-82.3414 -231.207 1073.23
-82.5959 -230.889 1074.24
-82.7844 -230.528 1075.24
-83.284 -230.441 1076.24
-83.8584 -230.42 1077.24
-84.1694 -230.068 1078.24
-84.4049 -229.621 1079.24
-84.8018 -229.464 1080.24
-85.2558 -229.409 1081.24
-85.5713 -229.078 1082.24
-85.8302 -228.635 1083.24
-86.2522 -228.449 1084.24
-86.7501 -228.383 1085.24
-87.0334 -228.007 1086.24
-87.1978 -227.46 1087.24
-87.4862 -227.315 1088.25
-87.8523 -227.422 1089.25
-88.0935 -227.141 1090.25
-88.2466 -226.585 1091.25
-88.4543 -226.295 1092.25
-88.7051 -226.215 1093.25
-88.9212 -225.93 1094.25
-89.1065 -225.462 1095.25
-89.3273 -225.178 1096.25
-89.5849 -225.085 1097.25
-89.7597 -224.833 1098.25
-89.8342 -224.391 1099.25
-89.9193 -224.163 1100.25
-90.0189 -224.225 1101.26
-90.1066 -224.053 1102.26
-90.1761 -223.524 1103.26
-90.2629 -223.187 1104.26
-90.3797 -223.183 1105.26
-90.4518 -223.004 1106.26
-90.4402 -222.497 1107.26
-90.4422 -222.187 1108.26
-90.4759 -222.337 1109.26
-90.4933 -222.307 1110.26
-90.4645 -221.771 1111.26
-90.446 -221.425 1112.26
-90.4594 -221.671 1113.26
-90.4716 -221.731 1114.26
-90.4781 -221.018 1115.27
-90.4994 -220.408 1116.27
-90.5902 -220.281 1117.27
-90.6542 -220.13 1118.27
-90.5496 -219.824 1119.27
-90.4643 -219.543 1120.27
-90.5359 -219.471 1121.27
-90.6044 -219.367 1122.27
-90.6318 -218.842 1123.27
-90.6606 -218.331 1124.27
-90.7201 -218.13 1125.27
-90.7774 -217.928 1126.27
-90.6757 -217.63 1127.27
-90.574 -217.331 1128.28
-90.5782 -217.201 1129.28
-90.5851 -217.076 1130.28
-90.6222 -216.585 1131.28
-90.6609 -216.074 1132.28
-90.6168 -216.068 1133.28
-90.5652 -216.107 1134.28
-90.53 -215.482 1135.28
-90.4971 -214.767 1136.28
-90.5322 -214.485 1137.28
-90.5791 -214.28 1138.28
-90.5038 -213.805 1139.28
-90.4021 -213.274 1140.28
-90.3668 -213.025 1141.29
-90.3486 -212.849 1142.29
-90.3038 -212.465 1143.29
-90.2505 -212.015 1144.29
-90.3058 -211.626 1145.29
-90.4018 -211.26 1146.29
-90.3598 -210.856 1147.29
-90.2556 -210.434 1148.29
-90.2244 -210.174 1149.29
-90.2308 -209.995 1150.29
-90.2161 -209.65 1151.29
-90.1886 -209.204 1152.29
-90.1883 -208.906 1153.29
-90.1965 -208.653 1154.29
-90.2069 -208.266 1155.3
-90.2191 -207.78 1156.3
-90.2357 -207.571 1157.3
-90.2563 -207.6 1158.3
-90.2573 -207.287 1159.3
-90.2385 -206.629 1160.3
-90.2238 -206.241 1161.3
-90.2137 -206.159 1162.3
-90.245 -205.813 1163.3
-90.3309 -205.116 1164.3
-90.358 -204.779 1165.3
-90.2978 -204.974 1166.3
-90.2664 -204.845 1167.3
-90.2831 -204.17 1168.31
-90.3013 -203.677 1169.31
-90.3221 -203.529 1170.31
-90.3363 -203.232 1171.31
-90.3357 -202.602 1172.31
-90.3471 -202.137 1173.31
-90.3897 -202.101 1174.31
-90.4299 -201.924 1175.31
-90.4629 -201.323 1176.31
-90.512 -200.802 1177.31
-90.6214 -200.58 1178.31
-90.7059 -200.34 1179.31
-90.6791 -200.014 1180.31
-90.6679 -199.751 1181.31
-90.7425 -199.832 1182.32
-90.8066 -199.826 1183.32
-90.7915 -199.159 1184.32
-90.7876 -198.53 1185.32
-90.9002 -198.296 1186.32
-91.003 -198.051 1187.32
-90.9488 -197.633 1188.32
-90.8984 -197.233 1189.32
-90.9674 -197.43 1190.32
-91.0364 -197.626 1191.32
-91.0675 -197.092 1192.32
-91.0982 -196.552 1193.32
-91.1243 -196.501 1194.32
-91.1502 -196.468 1195.33
-91.2612 -196.06 1196.33
-91.379 -195.621 1197.33
-91.3408 -195.59 1198.33
-91.2847 -195.607 1199.33
-91.3126 -195.061 1200.33
-91.3408 -194.515 1201.33
-91.343 -194.577 1202.33
-91.3402 -194.755 1203.33
-91.3501 -194.301 1204.33
-91.3631 -193.689 1205.33
-91.4403 -193.582 1206.33
-91.5364 -193.624 1207.33
-91.5396 -193.137 1208.33
-91.5093 -192.459 1209.34
-91.5199 -192.409 1210.34
-91.5476 -192.62 1211.34
-91.5691 -192.322 1212.34
-91.5877 -191.769 1213.34
-91.6061 -191.415 1214.34
-91.6244 -191.172 1215.34
-91.6294 -190.887 1216.34
-91.6261 -190.577 1217.34
-91.6343 -190.378 1218.34
-91.6506 -190.259 1219.34
-91.6118 -189.964 1220.34
-91.5268 -189.519 1221.34
-91.5013 -189.612 1222.35
-91.5317 -190.211 1223.35
-91.5177 -190.34 1224.35
-91.4549 -189.953 1225.35
-91.4152 -189.591 1226.35
-91.404 -189.26 1227.35
-91.4077 -188.932 1228.35
-91.4329 -188.607 1229.35
-91.4188 -188.299 1230.35
-91.3436 -188.019 1231.35
-91.2959 -187.739 1232.35
-91.299 -187.463 1233.35
-91.2815 -187.251 1234.35
-91.2212 -187.175 1235.36
-91.1584 -187.012 1236.36
-91.0891 -186.635 1237.36
-91.035 -186.279 1238.36
-91.0222 -185.978 1239.36
-90.9724 -185.724 1240.36
-90.7899 -185.638 1241.36
-90.6209 -185.541 1242.36
-90.5093 -185.396 1243.36
-90.4187 -185.206 1244.36
-90.4372 -184.782 1245.36
-90.427 -184.459 1246.36
-90.3445 -184.395 1247.36
-90.2454 -184.315 1248.36
-89.9889 -184.087 1249.37
-89.7413 -183.861 1250.37
-89.6213 -183.686 1251.37
-89.5 -183.506 1252.37
-89.3332 -183.15 1253.37
-89.1664 -182.794 1254.37
