-103.31 -191.522 1081.43
-103.972 -191.749 1081.34
-104.632 -191.989 1081.24
-105.291 -192.243 1081.16
-105.948 -192.51 1081.07
-106.603 -192.79 1080.99
-107.255 -193.085 1080.91
-107.903 -193.394 1080.83
-108.547 -193.717 1080.76
-109.187 -194.055 1080.69
-109.821 -194.408 1080.63
-110.45 -194.776 1080.57
-111.072 -195.158 1080.51
-111.687 -195.555 1080.46
-112.294 -195.968 1080.41
-112.893 -196.395 1080.37
-113.482 -196.837 1080.33
-114.062 -197.294 1080.3
-114.631 -197.766 1080.27
-115.19 -198.253 1080.25
-115.736 -198.753 1080.23
-116.27 -199.268 1080.22
-116.79 -199.798 1080.21
-117.296 -200.34 1080.21
-117.788 -200.896 1080.22
-118.264 -201.466 1080.22
-118.724 -202.048 1080.24
-119.166 -202.642 1080.26
-119.592 -203.248 1080.29
-119.999 -203.866 1080.32
-120.389 -204.493 1080.36
-120.76 -205.131 1080.41
-121.114 -205.777 1080.46
-121.45 -206.43 1080.51
-121.769 -207.091 1080.57
-122.07 -207.759 1080.63
-122.355 -208.432 1080.7
-122.623 -209.109 1080.78
-122.875 -209.792 1080.85
-123.112 -210.477 1080.94
-123.333 -211.166 1081.02
-123.538 -211.857 1081.11
-123.73 -212.551 1081.2
-123.907 -213.245 1081.3
-124.071 -213.941 1081.4
-124.221 -214.637 1081.5
-124.359 -215.334 1081.6
-124.485 -216.03 1081.71
-124.6 -216.726 1081.82
-124.704 -217.422 1081.93
-124.797 -218.116 1082.04
-124.88 -218.809 1082.16
-124.955 -219.502 1082.27
-125.02 -220.192 1082.39
-125.078 -220.882 1082.51
-125.129 -221.57 1082.63
-125.172 -222.257 1082.75
-125.21 -222.942 1082.88
-125.241 -223.627 1083
-125.267 -224.31 1083.12
-125.286 -224.993 1083.25
-125.298 -225.674 1083.38
-125.302 -226.355 1083.51
-125.298 -227.035 1083.64
-125.286 -227.715 1083.77
-125.265 -228.393 1083.9
-125.234 -229.071 1084.04
-125.193 -229.747 1084.17
-125.142 -230.423 1084.31
-125.079 -231.096 1084.46
-125.005 -231.768 1084.6
-124.918 -232.438 1084.74
-124.82 -233.106 1084.89
-124.708 -233.771 1085.04
-124.582 -234.432 1085.19
-124.443 -235.091 1085.35
-124.289 -235.745 1085.5
-124.121 -236.394 1085.66
-123.937 -237.038 1085.82
-123.738 -237.677 1085.99
-123.523 -238.309 1086.15
-123.292 -238.935 1086.32
-123.044 -239.552 1086.49
-122.78 -240.162 1086.66
-122.499 -240.762 1086.83
-122.2 -241.353 1087.01
-121.885 -241.933 1087.18
-121.551 -242.501 1087.36
-121.201 -243.058 1087.54
-120.834 -243.602 1087.72
-120.451 -244.134 1087.9
-120.054 -244.652 1088.08
-119.642 -245.158 1088.26
-119.217 -245.651 1088.44
-118.779 -246.13 1088.62
-118.329 -246.596 1088.81
-117.869 -247.049 1088.99
-117.398 -247.488 1089.17
-116.917 -247.914 1089.35
-116.428 -248.327 1089.53
-115.93 -248.727 1089.71
-115.425 -249.114 1089.89
-114.913 -249.488 1090.06
-114.394 -249.849 1090.24
-113.87 -250.199 1090.42
-113.342 -250.536 1090.59
-112.808 -250.862 1090.76
-112.271 -251.176 1090.93
-111.731 -251.479 1091.1
-111.188 -251.772 1091.27
-110.642 -252.055 1091.44
-110.095 -252.328 1091.6
-109.546 -252.591 1091.77
-108.996 -252.846 1091.93
-108.445 -253.093 1092.09
-107.894 -253.332 1092.25
-107.343 -253.563 1092.41
-106.792 -253.788 1092.57
-106.241 -254.007 1092.72
-105.69 -254.22 1092.88
-105.141 -254.428 1093.03
-104.591 -254.631 1093.18
-104.043 -254.831 1093.33
-103.496 -255.028 1093.49
-102.949 -255.221 1093.64
-102.403 -255.412 1093.78
-101.857 -255.6 1093.93
-101.311 -255.785 1094.08
-100.765 -255.968 1094.23
-100.219 -256.149 1094.38
-99.6725 -256.327 1094.52
-99.1251 -256.503 1094.67
-98.5768 -256.677 1094.82
-98.0274 -256.849 1094.97
-97.4765 -257.019 1095.11
-96.924 -257.187 1095.26
-96.3697 -257.353 1095.4
-95.8132 -257.517 1095.55
-95.2544 -257.679 1095.7
-94.693 -257.84 1095.84
-94.1287 -257.998 1095.99
-93.5614 -258.154 1096.14
-92.9908 -258.309 1096.29
-92.4166 -258.461 1096.43
-91.8386 -258.611 1096.58
-91.2566 -258.759 1096.73
-90.6702 -258.905 1096.88
-90.0794 -259.048 1097.03
-89.4838 -259.189 1097.18
-88.8832 -259.328 1097.33
-88.2774 -259.463 1097.48
-87.6662 -259.596 1097.64
-87.0493 -259.726 1097.79
-86.4266 -259.852 1097.94
-85.7977 -259.976 1098.09
-85.1626 -260.096 1098.25
-84.521 -260.212 1098.4
-83.8728 -260.323 1098.56
-83.2178 -260.429 1098.72
-82.556 -260.529 1098.87
-81.8874 -260.622 1099.03
-81.2121 -260.705 1099.18
-80.5302 -260.78 1099.34
-79.8419 -260.844 1099.49
-79.1475 -260.897 1099.65
-78.4473 -260.938 1099.8
-77.7416 -260.965 1099.95
-77.031 -260.979 1100.1
-76.3158 -260.978 1100.25
-75.5966 -260.96 1100.4
-74.874 -260.927 1100.54
-74.1488 -260.875 1100.68
-73.4215 -260.806 1100.82
-72.6929 -260.717 1100.95
-71.9639 -260.609 1101.08
-71.2353 -260.481 1101.21
-70.5081 -260.332 1101.33
-69.7831 -260.161 1101.45
-69.0614 -259.968 1101.56
-68.344 -259.752 1101.67
-67.6321 -259.514 1101.77
-66.9266 -259.252 1101.87
-66.2284 -258.968 1101.96
-65.5382 -258.662 1102.04
-64.8569 -258.335 1102.12
-64.1852 -257.987 1102.19
-63.5237 -257.619 1102.26
-62.8733 -257.232 1102.32
-62.2345 -256.827 1102.38
-61.608 -256.404 1102.43
-60.9943 -255.964 1102.47
-60.394 -255.508 1102.51
-59.8075 -255.037 1102.54
-59.2354 -254.551 1102.57
-58.6781 -254.051 1102.59
-58.136 -253.538 1102.6
-57.6094 -253.014 1102.61
-57.0987 -252.478 1102.61
-56.6041 -251.932 1102.61
-56.126 -251.376 1102.61
-55.6643 -250.812 1102.59
-55.2195 -250.24 1102.58
-54.7915 -249.662 1102.56
-54.3805 -249.077 1102.53
-53.9866 -248.486 1102.5
-53.6097 -247.892 1102.46
-53.2499 -247.293 1102.42
-52.9073 -246.69 1102.38
-52.5821 -246.079 1102.33
-52.2749 -245.461 1102.28
-51.986 -244.833 1102.22
-51.7162 -244.194 1102.15
-51.4661 -243.543 1102.08
-51.2365 -242.879 1102
-51.0286 -242.199 1101.91
-50.8434 -241.505 1101.82
-50.6812 -240.795 1101.72
-50.5403 -240.077 1101.61
-50.418 -239.358 1101.5
-50.3116 -238.644 1101.39
-50.2174 -237.941 1101.27
-50.1317 -237.255 1101.16
-50.0516 -236.59 1101.05
-49.98 -235.942 1100.94
-49.9218 -235.306 1100.83
-49.8821 -234.678 1100.72
-49.8664 -234.052 1100.6
-49.8805 -233.425 1100.48
-49.9306 -232.792 1100.35
-50.023 -232.151 1100.21
-50.1643 -231.499 1100.06
-50.3615 -230.834 1099.89
-50.6212 -230.155 1099.7
-50.9332 -229.468 1099.51
-51.2713 -228.786 1099.31
-51.6076 -228.119 1099.11
-51.9221 -227.474 1098.92
-52.2156 -226.849 1098.74
-52.4916 -226.241 1098.57
-52.7542 -225.649 1098.4
-53.0073 -225.071 1098.24
-53.2547 -224.507 1098.08
-53.5007 -223.955 1097.93
-53.7493 -223.415 1097.77
-54.0049 -222.886 1097.62
-54.2713 -222.369 1097.47
-54.5502 -221.864 1097.31
-54.84 -221.369 1097.16
-55.139 -220.885 1097
-55.4455 -220.41 1096.85
-55.7579 -219.944 1096.7
-56.0746 -219.486 1096.54
-56.3939 -219.035 1096.39
-56.7145 -218.59 1096.24
-57.0348 -218.149 1096.09
-57.3537 -217.713 1095.94
-57.6695 -217.278 1095.79
-57.9813 -216.845 1095.65
-58.2878 -216.411 1095.5
-58.5879 -215.976 1095.35
-58.8805 -215.537 1095.21
-59.1648 -215.094 1095.07
-59.44 -214.644 1094.92
-59.7057 -214.187 1094.78
-59.9635 -213.723 1094.64
-60.2146 -213.252 1094.5
-60.4601 -212.777 1094.36
-60.7014 -212.298 1094.22
-60.9395 -211.816 1094.07
-61.1755 -211.331 1093.93
-61.4103 -210.847 1093.79
-61.6448 -210.362 1093.65
-61.8797 -209.88 1093.51
-62.1156 -209.4 1093.37
-62.3532 -208.925 1093.23
-62.5928 -208.456 1093.09
-62.8348 -207.994 1092.95
-63.0795 -207.541 1092.82
-63.3269 -207.099 1092.68
-63.5769 -206.666 1092.55
-63.8294 -206.243 1092.41
-64.0844 -205.83 1092.28
-64.3417 -205.425 1092.15
-64.6014 -205.027 1092.02
-64.8635 -204.638 1091.89
-65.1281 -204.255 1091.77
-65.3952 -203.878 1091.64
-65.665 -203.507 1091.51
-65.9377 -203.142 1091.39
-66.2135 -202.781 1091.26
-66.4926 -202.425 1091.14
-66.7752 -202.072 1091.01
-67.0618 -201.724 1090.88
-67.3525 -201.378 1090.76
-67.6477 -201.034 1090.63
-67.9479 -200.693 1090.5
-68.2535 -200.354 1090.38
-68.5648 -200.017 1090.25
-68.8824 -199.68 1090.12
-69.2068 -199.345 1089.99
-69.5385 -199.01 1089.85
-69.878 -198.675 1089.72
-70.2259 -198.341 1089.58
-70.5828 -198.007 1089.45
-70.9495 -197.672 1089.31
-71.3263 -197.338 1089.16
-71.7136 -197.004 1089.02
-72.1112 -196.67 1088.88
-72.5194 -196.339 1088.73
-72.9381 -196.009 1088.58
-73.3674 -195.682 1088.43
-73.8071 -195.358 1088.27
-74.2574 -195.039 1088.12
-74.7181 -194.723 1087.96
-75.189 -194.413 1087.81
-75.6702 -194.108 1087.65
-76.1614 -193.809 1087.49
-76.6625 -193.516 1087.33
-77.1732 -193.231 1087.17
-77.6933 -192.954 1087.01
-78.2225 -192.685 1086.85
-78.7606 -192.424 1086.69
-79.3072 -192.173 1086.53
-79.862 -191.932 1086.37
-80.4245 -191.701 1086.21
-80.9945 -191.48 1086.05
-81.5714 -191.27 1085.89
-82.1549 -191.072 1085.73
-82.7444 -190.886 1085.57
-83.3394 -190.712 1085.41
-83.9395 -190.55 1085.26
-84.5446 -190.401 1085.1
-85.1544 -190.265 1084.95
-85.7686 -190.14 1084.8
-86.387 -190.029 1084.65
-87.0095 -189.929 1084.5
-87.6357 -189.843 1084.36
-88.2656 -189.768 1084.21
-88.8988 -189.707 1084.07
-89.5352 -189.657 1083.93
-90.1746 -189.621 1083.79
-90.8167 -189.597 1083.65
-91.4615 -189.585 1083.52
-92.1087 -189.586 1083.38
-92.758 -189.6 1083.25
-93.4095 -189.626 1083.12
-94.0627 -189.664 1082.99
-94.7177 -189.715 1082.87
-95.3742 -189.779 1082.74
-96.032 -189.855 1082.62
-96.691 -189.944 1082.5
-97.351 -190.045 1082.38
-98.0118 -190.159 1082.27
-98.6733 -190.286 1082.16
-99.3354 -190.424 1082.04
-99.9978 -190.576 1081.94
-100.66 -190.74 1081.83
-101.323 -190.917 1081.73
-101.986 -191.106 1081.62
-102.648 -191.308 1081.53
