-183.450298 7.529170 1304.610000
-183.325882 6.646060 1304.614333
-183.415525 5.761251 1304.618636
-183.029606 4.887061 1304.622939
-182.798633 4.013797 1304.627212
-182.760355 3.135621 1304.631484
-181.980909 2.296286 1304.635604
-182.065827 1.416927 1304.639907
-181.841856 0.556745 1304.644119
-181.792357 -0.314307 1304.648361
-180.981051 -1.119042 1304.652328
-180.963001 -1.987218 1304.656570
-180.876193 -2.849312 1304.660781
-180.782586 -3.710697 1304.664993
-180.712155 -4.575008 1304.669235
-180.458901 -5.415873 1304.673324
-180.536006 -6.300676 1304.677657
-180.466902 -7.167149 1304.681899
-180.390723 -8.033556 1304.686141
-180.251173 -8.890426 1304.690322
-180.114891 -9.747939 1304.694534
-180.466561 -10.696149 1304.699203
-180.374290 -11.567287 1304.703475
-180.637570 -12.512109 1304.708083
-180.208916 -13.317820 1304.712051
-180.497922 -14.278133 1304.716689
-180.371497 -15.151312 1304.720962
-180.720958 -16.140056 1304.725814
-180.510654 -16.999499 1304.729995
-180.859559 -18.003633 1304.734939
-180.782337 -18.904232 1304.739333
-180.977791 -19.883322 1304.744125
-181.408819 -20.938132 1304.749252
-180.942537 -21.739982 1304.753219
-181.266310 -22.779372 1304.758285
-182.259616 -24.041092 1304.764449
-182.044802 -24.934618 1304.768813
-182.215664 -25.958511 1304.773849
-182.473038 -27.021180 1304.779128
-182.009895 -27.839611 1304.783096
-182.565927 -29.025958 1304.788864
-182.315716 -29.928160 1304.793258
-182.776575 -31.104840 1304.799026
-182.769678 -32.113248 1304.803939
-182.257484 -32.924338 1304.807876
-182.293581 -33.959307 1304.813033
-182.281290 -34.981878 1304.818099
-183.073009 -36.361431 1304.824691
-182.906104 -37.338558 1304.829208
-183.347317 -38.597518 1304.835647
-183.412177 -39.698768 1304.840957
-183.722459 -40.927214 1304.847091
-183.635430 -41.977586 1304.852462
-183.814583 -43.168126 1304.857986
-183.692138 -44.218541 1304.863204
-183.869407 -45.432213 1304.869247
-183.888366 -46.575895 1304.874862
-184.348700 -47.970221 1304.881637
-184.230749 -49.065347 1304.886886
-183.919775 -50.059844 1304.891738
-184.238738 -51.422450 1304.898544
-184.178953 -52.581352 1304.904220
-184.385437 -53.911172 1304.910568
-184.246985 -55.047256 1304.916244
-184.869643 -56.668723 1304.923934
-184.953314 -57.975526 1304.930526
-184.669910 -59.060028 1304.935806
-185.446428 -60.853464 1304.944503
-186.109138 -62.604607 1304.953109
-185.940217 -63.816559 1304.959152
-186.437360 -65.506553 1304.967239
-186.629294 -67.008355 1304.974624
-187.629686 -69.119721 1304.985183
-187.403821 -70.368222 1304.991561
-187.715650 -72.034165 1304.999252
-188.813896 -74.331083 1305.010391
-189.166068 -76.095371 1305.019760
-189.831297 -78.139087 1305.028579
-190.530189 -80.250327 1305.039230
-190.241748 -81.590010 1305.045822
-190.569002 -83.460666 1305.054977
-190.832749 -85.310435 1305.064102
-190.862330 -86.989066 1305.072250
-191.009044 -88.797511 1305.081039
-190.838653 -90.351157 1305.089065
-190.949154 -92.183804 1305.097610
-190.273445 -93.314790 1305.103225
-189.778853 -94.624318 1305.110000
-189.953655 -96.593439 1305.119216
-189.176783 -97.663900 1305.124587
-188.625383 -98.964675 1305.130905
-188.347334 -100.556810 1305.139449
-187.735361 -101.826790 1305.145065
-187.255688 -103.248571 1305.151870
-186.612724 -104.513185 1305.158065
-185.924914 -105.741425 1305.163955
-185.113909 -106.844340 1305.169448
-184.751472 -108.461565 1305.177444
-183.999744 -109.656797 1305.183029
-183.298025 -110.921568 1305.189590
-182.715036 -112.341576 1305.196182
-182.012156 -113.635710 1305.202773
-181.135092 -114.730038 1305.208572
-180.575622 -116.232006 1305.215560
-179.696509 -117.348299 1305.220870
-179.001918 -118.714767 1305.227706
-177.909290 -119.572200 1305.231826
-177.365638 -121.172330 1305.239639
-176.428644 -122.259663 1305.244979
-175.471344 -123.328412 1305.250289
-175.026167 -125.138110 1305.259078
-174.064750 -126.234484 1305.264480
-173.239933 -127.544580 1305.271072
-172.679418 -129.273755 1305.279220
-171.838494 -130.607429 1305.285873
-171.349971 -132.515719 1305.295150
-170.555265 -133.978375 1305.302810
-169.749258 -135.449955 1305.309585
-168.720071 -136.578349 1305.314987
-168.267459 -138.700606 1305.325424
-167.462509 -140.268408 1305.333083
-166.287741 -141.216416 1305.337783
-165.041075 -142.043595 1305.341934
-164.269488 -143.750116 1305.350509
-163.416183 -145.345015 1305.357955
-162.716974 -147.274013 1305.367355
-161.960641 -149.144266 1305.376449
-160.921438 -150.498922 1305.383132
-159.960363 -152.043569 1305.390670
-159.192637 -154.032786 1305.400710
-158.177467 -155.551852 1305.408035
-157.084382 -156.939837 1305.414657
-156.164786 -158.752228 1305.423507
-155.315398 -160.782185 1305.433456
-154.350767 -162.608673 1305.442367
-153.257029 -164.182955 1305.450027
-152.253717 -166.029315 1305.459121
-151.087517 -167.525781 1305.466445
-149.980792 -169.224180 1305.474716
-149.090117 -171.559686 1305.486251
-147.984664 -173.400807 1305.495193
-146.423005 -174.024333 1305.610000
-144.816278 -174.520536 1305.610000
-142.826894 -173.870130 1305.610000
-140.883697 -173.291383 1305.610000
-139.158196 -173.336282 1305.610000
-137.395062 -173.229674 1305.610000
-135.528788 -172.736926 1305.610000
-133.854702 -172.850942 1305.610000
-132.168646 -172.898815 1305.610000
-130.334424 -172.366450 1305.610000
-128.523736 -171.856150 1305.610000
-126.756955 -171.453603 1305.610000
-125.158213 -171.689832 1305.610000
-123.356296 -171.034876 1305.610000
-121.731252 -171.093598 1305.610000
-120.045709 -170.842983 1305.610000
-118.530238 -171.376157 1305.610000
-116.910562 -171.393402 1305.610000
-115.291442 -171.385665 1305.610000
-113.696790 -171.486270 1305.610000
-112.042538 -171.211921 1305.610000
-110.371467 -170.770728 1305.610000
-108.718062 -170.365421 1305.610000
-107.164647 -170.590656 1305.610000
-105.561227 -170.436989 1305.610000
-104.004611 -170.612720 1305.610000
-102.323061 -169.689558 1305.610000
-100.727999 -169.404339 1305.610000
-99.103170 -168.727969 1305.610000
-97.575981 -169.001622 1305.610000
-96.014989 -168.876806 1305.610000
-94.455732 -168.715016 1305.610000
-92.885215 -168.291904 1305.610000
-91.332491 -168.035474 1305.610000
-89.789522 -167.867515 1305.610000
-88.241613 -167.440498 1305.610000
-86.714501 -167.487156 1305.610000
-85.181132 -167.181977 1305.610000
-83.656393 -167.201937 1305.610000
-82.131538 -166.460628 1305.610000
-80.617643 -165.945978 1305.610000
-79.103864 -165.926161 1305.610000
-77.616409 -164.896634 1305.610000
-76.108126 -164.958762 1305.610000
-74.603134 -164.899631 1305.610000
-73.126486 -164.297457 1305.610000
-71.673554 -163.457351 1305.610000
-70.191705 -163.218387 1305.610000
-68.742144 -162.599203 1305.610000
-67.264496 -162.401892 1305.610000
-65.787061 -162.214711 1305.610000
-64.344488 -161.703306 1305.610000
-62.928698 -161.011989 1305.610000
-61.458649 -160.837997 1305.610000
-60.062947 -160.098421 1305.610000
-58.711355 -159.114086 1305.610000
-57.275328 -158.787612 1305.610000
-55.843346 -158.447942 1305.610000
-54.709675 -156.337421 1305.610000
-53.294009 -156.016584 1305.610000
-51.927485 -155.437316 1305.610000
-50.506502 -155.167534 1305.610000
-49.211413 -154.278412 1305.610000
-47.829840 -153.847631 1305.610000
-46.422885 -153.542152 1305.610000
-44.903331 -153.723911 1305.610000
-43.874624 -151.822345 1305.610000
-42.405614 -151.802809 1305.610000
-41.016710 -151.450072 1305.610000
-39.369634 -152.060429 1305.610000
-37.879979 -152.036794 1305.610000
-36.567792 -151.370494 1305.610000
-34.986668 -151.629241 1305.610000
-33.919763 -150.164438 1305.414687
-32.535287 -149.770041 1305.424056
-31.330841 -148.819299 1305.442275
-30.577561 -146.549425 1305.488601
-29.667288 -144.838076 1305.523483
-28.732837 -143.264109 1305.555343
-27.928884 -141.391396 1305.592819
-27.303905 -139.113994 1305.639175
-26.295007 -137.929964 1305.663436
-25.461280 -136.336662 1305.695327
-24.491513 -135.134897 1305.720168
-23.544270 -133.913006 1305.743698
-22.618528 -132.674696 1305.770156
-21.778093 -131.274250 1305.798507
-20.927429 -129.937510 1305.824081
-20.114867 -128.553993 1305.854141
-19.232122 -127.359062 1305.878036
-18.452180 -125.977380 1305.905044
-17.323575 -125.346845 1305.918685
-16.452058 -124.203487 1305.940139
-15.976765 -122.306883 1305.980270
-15.429564 -120.604130 1306.015518
-14.440767 -119.778655 1306.033462
-13.667131 -118.566582 1306.053726
-13.137962 -116.938535 1306.089828
-12.567888 -115.424164 1306.120712
-12.229699 -113.544366 1306.158187
-11.770967 -111.919376 1306.187789
-10.765444 -111.243956 1306.203323
-10.100280 -110.015160 1306.229965
-9.393727 -108.875660 1306.252456
-9.476479 -106.516427 1306.299880
-9.055308 -104.998356 1306.332351
-8.709699 -103.399127 1306.361770
-8.416837 -101.757368 1306.395370
-8.000666 -100.331918 1306.426132
-7.298399 -99.343628 1306.444808
-7.406087 -97.232048 1306.487472
-7.068581 -95.786126 1306.517135
-6.702269 -94.407637 1306.545181
-6.520855 -92.809595 1306.577285
-6.750375 -90.709474 1306.619857
-6.000818 -89.913708 1306.635848
-6.136297 -88.009942 1306.674636
-6.364945 -86.034780 1306.714706
-6.136398 -84.660307 1306.743179
-5.824764 -83.409702 1306.768752
-6.185986 -81.391647 1306.809982
-6.029629 -80.016062 1306.836135
-6.092034 -78.417855 1306.869857
-5.724874 -77.329027 1306.889510
-6.075548 -75.471378 1306.930007
-6.104580 -73.999760 1306.957321
-6.351115 -72.326734 1306.988052
-6.154119 -71.147751 1307.013992
-6.454746 -69.480092 1307.050521
-6.371809 -68.230559 1307.073654
-6.380231 -66.911432 1307.100570
-6.772702 -65.244012 1307.134628
-7.472728 -63.319395 1307.174728
-7.309193 -62.243795 1307.195266
-7.654898 -60.716097 1307.228195
-7.787980 -59.410070 1307.253982
-7.957770 -58.094236 1307.281356
-8.341997 -56.615099 1307.311630
-8.466169 -55.386999 1307.336349
-8.886536 -53.930684 1307.365249
-8.858563 -52.872410 1307.387100
-9.259447 -51.481486 1307.416091
-9.484835 -50.256627 1307.438491
-9.820164 -48.966667 1307.466537
-10.119939 -47.727273 1307.489852
-10.196463 -46.677797 1307.511978
-10.589815 -45.408920 1307.537826
-10.407962 -44.581058 1307.554000
-10.717596 -43.409899 1307.578048
-11.131898 -42.185313 1307.602859
-11.567757 -40.967973 1307.627517
-11.720328 -39.963791 1307.647811
-11.910685 -38.948999 1307.668441
-12.034239 -37.992548 1307.687789
-12.208803 -37.016525 1307.707778
-12.196748 -36.170937 1307.724929
-12.438749 -35.178626 1307.745315
-12.832467 -34.109913 1307.766525
-13.185379 -33.083221 1307.787521
-13.263686 -32.231703 1307.804092
-13.501833 -31.299649 1307.823989
-13.777039 -30.360348 1307.842056
-14.051216 -29.435429 1307.861160
-13.761784 -28.823673 1307.873550
-13.485096 -28.205906 1307.886031
-13.781224 -27.297054 1307.904128
-14.292694 -26.294030 1307.923538
-14.205438 -25.600602 1307.938461
-14.136560 -24.902771 1307.953109
-14.396701 -24.056103 1307.971053
-14.985346 -23.071113 1307.989761
-14.945383 -22.384033 1308.002822
-15.226334 -21.562041 1308.021652
-15.173702 -20.892745 1308.033767
-15.408594 -20.108378 1308.050735
-15.489697 -19.395881 1308.063827
-15.558992 -18.694453 1308.078445
-15.446897 -18.068665 1308.091140
-15.724164 -17.299530 1308.106887
-15.926090 -16.567643 1308.121230
-16.076491 -15.862149 1308.136886
-15.996972 -15.242787 1308.148544
-16.289553 -14.501250 1308.164382
-16.420279 -13.821712 1308.177047
-16.446075 -13.181377 1308.189987
-16.437225 -12.555597 1308.203048
-16.358337 -11.953740 1308.215286
-16.656910 -11.245377 1308.230087
-16.502049 -10.671498 1308.241744
-17.004304 -9.921620 1308.257034
-16.862420 -9.350572 1308.268600
-17.025074 -8.703695 1308.281661
-16.946295 -8.120422 1308.293228
-17.171744 -7.467980 1308.306381
-17.361746 -6.829947 1308.319198
-17.328220 -6.245200 1308.331161
-17.798433 -5.559548 1308.345046
-17.562011 -5.021875 1308.356246
-17.805648 -4.392929 1308.368484
-17.895629 -3.797354 1308.380599
-17.818199 -3.233192 1308.391982
-18.163023 -2.602448 1308.405074
-18.088534 -2.042121 1308.416396
-18.364458 -1.432709 1308.428451
-18.239019 -0.882440 1308.439742
-18.246877 -0.314880 1308.451034
-18.536960 0.283483 1308.463302
-18.482949 0.839434 1308.474563
-18.468020 1.399070 1308.485854
-18.291922 1.943927 1308.496871
-18.432644 2.515958 1308.508407
-18.437273 3.075233 1308.519760
-18.388856 3.630500 1308.531021
-18.529195 4.195912 1308.542495
-18.436962 4.748205 1308.553665
-18.498546 5.307057 1308.564987
-18.439832 5.861344 1308.576217
-18.429840 6.417253 1308.587478
-18.284262 6.971983 1308.598708
-18.287182 7.529170 1308.610000
-18.282711 8.086370 1308.590133
-18.462506 8.640517 1308.570358
-18.313170 9.200313 1308.550399
-18.265804 9.759410 1308.530471
-18.200810 10.320446 1308.510452
-18.213007 10.878998 1308.490524
-18.264444 11.435449 1308.470657
-18.112453 12.005820 1308.450393
-18.110136 12.567763 1308.430465
-17.882723 13.150213 1308.409561
-17.927303 13.711334 1308.389541
-17.893670 14.280842 1308.369369
-17.426253 14.901406 1308.347366
-17.245340 15.496193 1308.326125
-17.200261 16.077535 1308.305282
-17.358921 16.632368 1308.285751
-16.926478 17.274131 1308.262344
-16.758786 17.883197 1308.240615
-16.589024 18.497225 1308.219039
-16.612162 19.082004 1308.198562
-16.638633 19.667562 1308.177413
-16.450683 20.296235 1308.154189
-16.320925 20.918490 1308.132522
-16.180683 21.547457 1308.110031
-16.210110 22.143599 1308.088912
-16.213117 22.747636 1308.066390
-16.134040 23.373767 1308.044692
-16.012204 24.014571 1308.021316
-15.784090 24.687787 1307.998519
-15.860805 25.286359 1307.976913
-15.819573 25.919105 1307.954666
-15.697516 26.578819 1307.930618
-15.560874 27.248299 1307.906967
-15.535209 27.889711 1307.883773
-15.434287 28.558732 1307.859786
-15.278678 29.250981 1307.835037
-15.124120 29.949538 1307.810256
-14.956984 30.659224 1307.785018
-14.977212 31.309764 1307.761886
-15.014564 31.957750 1307.738662
-14.978913 32.636507 1307.714431
-14.570658 33.463362 1307.684921
-14.600337 34.130417 1307.661270
-14.446559 34.875676 1307.634597
-14.425289 35.574016 1307.609695
-14.032503 36.435495 1307.578933
-14.102566 37.109009 1307.555007
-13.877294 37.917917 1307.526412
-14.051914 38.554842 1307.503646
-14.008251 39.295580 1307.477157
-14.074124 39.990891 1307.452621
-14.167171 40.677606 1307.428024
-14.104533 41.446183 1307.399673
-14.155142 42.164874 1307.374954
-13.951014 43.021704 1307.344314
-13.625208 43.954632 1307.311416
-13.821810 44.618326 1307.288345
-13.643490 45.492714 1307.255782
-13.537101 46.338035 1307.227371
-13.436139 47.190477 1307.195968
-13.494047 47.959742 1307.168502
-13.691994 48.651796 1307.143661
-13.734557 49.442894 1307.116226
-13.642666 50.325767 1307.083999
-13.661134 51.149628 1307.055343
-13.569561 52.053838 1307.022262
-13.549092 52.922900 1306.991042
-13.353890 53.920279 1306.954543
-13.468098 54.720244 1306.928848
-13.463262 55.611214 1306.894424
-13.427306 56.535422 1306.862075
-13.480765 57.406876 1306.831710
-13.457880 58.345003 1306.797347
-13.354525 59.356366 1306.761001
-13.269963 60.368515 1306.725570
-13.448665 61.190111 1306.696395
-13.374046 62.221348 1306.659103
-13.365971 63.214428 1306.623824
-13.473741 64.126289 1306.591384
-13.545283 65.079871 1306.557327
-13.625966 66.038456 1306.523300
-13.937662 66.809202 1306.496322
-13.579343 68.179029 1306.446334
-13.800042 69.055125 1306.416274
-13.717912 70.218708 1306.376510
-13.635851 71.402431 1306.332198
-13.954943 72.226342 1306.304366
-14.035693 73.288563 1306.264907
-14.123803 74.360184 1306.226455
-14.060602 75.600105 1306.180190
-14.181505 76.675625 1306.142715
-14.454799 77.610484 1306.110488
-14.603328 78.689055 1306.076583
-14.724893 79.813946 1306.033737
-14.751753 81.061302 1305.987502
-14.970842 82.118678 1305.948989
-15.079606 83.317592 1305.907455
-15.313727 84.394268 1305.867477
-15.558042 85.476719 1305.829727
-15.514755 86.919960 1305.778579
-15.817490 87.974543 1305.742141
-16.177360 88.975796 1305.705032
-16.382159 90.187467 1305.661575
-16.512418 91.517813 1305.614272
-16.688406 92.816320 1305.567947
-16.798854 94.228569 1305.517837
-17.189629 95.293123 1305.480117
-17.557823 96.407264 1305.439437
-17.992578 97.448675 1305.403701
-18.413689 98.527689 1305.366226
-18.547372 100.044705 1305.309646
-18.986560 101.145448 1305.269546
-19.246145 102.538635 1305.222793
-19.517020 103.947072 1305.172286
-19.921190 105.179855 1305.130813
-20.535854 106.102869 1305.092269
-20.729077 107.728879 1305.037155
-21.362213 108.666309 1305.003677
-21.687121 110.143426 1304.947982
-22.067070 111.563879 1304.898818
-22.657471 112.649227 1304.863174
-23.349399 113.574955 1304.827346
-23.642391 115.252778 1304.766555
-24.287037 116.318853 1304.729934
-25.104984 117.076161 1304.703842
-25.700152 118.282000 1304.659683
-26.121145 119.868638 1304.603103
-26.754327 121.069277 1304.560409
-27.370953 122.337124 1304.517013
-27.977970 123.661870 1304.466995
-28.681013 124.815642 1304.426986
-29.227785 126.352945 1304.372482
-30.151181 127.075805 1304.346572
-31.091009 127.773120 1304.323959
-31.661611 129.374352 1304.266647
-32.397983 130.624038 1304.223068
-33.273759 131.561867 1304.190017
-34.072730 132.726644 1304.143752
-34.708519 134.367796 1304.086898
-35.747704 134.967706 1304.066696
-36.785575 135.582218 1304.041244
-37.526854 137.070577 1303.991989
-38.450331 138.078536 1303.956985
-39.279949 139.412798 1303.908065
-40.241684 140.386812 1303.874313
-41.130535 141.637405 1303.828628
-42.070906 142.771595 1303.785446
-43.150677 143.471585 1303.760391
-44.054982 144.828796 1303.713455
-45.093082 145.758567 1303.679153
-46.094459 146.874216 1303.640029
-47.166963 147.764420 1303.608077
-48.291825 148.481718 1303.582687
-49.277313 149.836451 1303.534316
-50.388442 150.713022 1303.501754
-51.400897 152.105465 1303.452865
-52.598740 152.687505 1303.432205
-53.658610 154.009686 1304.610000
-54.712579 155.468630 1304.610000
-55.982965 155.825094 1304.610000
-57.273958 156.072211 1304.610000
-58.573367 156.269606 1304.610000
-59.933391 156.060440 1304.610000
-61.373276 155.231875 1304.610000
-62.558682 156.199771 1304.610000
-63.919590 155.853583 1304.610000
-65.186417 156.254584 1304.610000
-66.494832 156.302485 1304.610000
-67.771847 156.660264 1304.610000
-68.762956 160.332763 1304.610000
-70.072810 160.749832 1304.610000
-71.388927 161.155653 1304.610000
-72.711211 161.550149 1304.610000
-74.039563 161.933244 1304.610000
-75.373885 162.304860 1304.610000
-76.714078 162.664923 1304.610000
-78.060041 163.013359 1304.610000
-79.411673 163.350095 1304.610000
-80.768873 163.675058 1304.610000
-82.131538 163.988177 1304.610000
-83.499563 164.289380 1304.610000
-84.872846 164.578599 1304.610000
-86.251280 164.855765 1304.610000
-87.634759 165.120809 1304.610000
-89.023177 165.373665 1304.610000
-90.416426 165.614266 1304.610000
-91.814399 165.842548 1304.610000
-93.216985 166.058447 1304.610000
-94.624074 166.261899 1304.610000
-96.035557 166.452843 1304.610000
-97.451322 166.631216 1304.610000
-98.871257 166.796959 1304.610000
-100.295248 166.950014 1304.610000
-101.723183 167.090320 1304.610000
-103.154948 167.217822 1304.610000
-104.590426 167.332464 1304.610000
-106.029503 167.434190 1304.610000
-107.472062 167.522946 1304.610000
-108.917987 167.598679 1304.610000
-110.367159 167.661337 1304.610000
-110.364922 159.862877 1305.610000
-111.693192 159.610697 1305.610000
-113.251275 160.487564 1305.610000
-114.584887 160.210172 1305.610000
-115.916027 159.921153 1305.610000
-117.059627 158.819345 1305.610000
-118.378536 158.508783 1305.610000
-119.672881 158.099273 1305.610000
-121.140833 158.366922 1305.610000
-122.575918 158.469651 1305.610000
-124.047667 158.673848 1305.610000
-125.365040 158.302310 1305.610000
-126.679121 157.919291 1305.610000
-128.189025 158.176423 1305.610000
-129.844690 158.855957 1305.610000
-131.163432 158.433824 1305.610000
-132.684554 158.616209 1305.610000
-134.275492 158.966209 1305.610000
-135.704280 158.813927 1305.610000
-137.155049 158.705025 1305.610000
-138.506273 158.310248 1305.610000
-140.120370 158.595243 1305.610000
-141.727262 158.821731 1305.610000
-143.238701 158.774707 1305.610000
-144.605301 158.354176 1305.610000
-146.023385 158.048931 1305.610000
-147.590463 158.074391 1305.610000
-149.292196 158.374479 1305.610000
-150.839101 158.294158 1305.610000
-152.220001 157.834365 1305.610000
-153.680202 157.534064 1305.610000
-154.941683 156.812091 1305.610000
-156.550312 156.790140 1305.610000
-158.225675 156.872324 1305.610000
-160.231969 157.558702 1305.610000
-161.883650 157.521079 1305.610000
-163.978365 158.272274 1305.610000
-165.476347 157.887186 1305.610000
-167.946308 159.206262 1305.610000
-169.384180 158.655180 1305.610000
-170.905451 158.237368 1305.610000
-171.968717 157.043344 1305.610000
-173.270037 156.253683 1305.610000
-174.542043 155.416893 1305.852279
-175.723995 154.439900 1305.843551
-176.088734 152.210564 1305.826125
-177.074536 150.972392 1305.815444
-177.735961 149.268557 1305.800765
-178.382530 147.575233 1305.786910
-179.150721 146.086923 1305.774490
-180.168716 144.972225 1305.764968
-180.607756 143.070056 1305.748916
-181.497804 141.814971 1305.738357
-182.182707 140.301557 1305.725753
-182.854137 138.793417 1305.713119
-183.642670 137.457494 1305.701797
-184.142108 135.774033 1305.687484
-185.105445 134.691356 1305.678359
-185.844475 133.343024 1305.667281
-186.492885 131.902181 1305.655135
-187.025231 130.343905 1305.642043
-187.518036 128.762468 1305.628738
-188.254357 127.479196 1305.617965
-188.643815 125.823038 1305.604049
-189.443041 124.639126 1305.594100
-190.014034 123.218983 1305.582107
-190.651860 121.885728 1305.570876
-191.123654 120.393811 1305.558547
-191.787009 119.115388 1305.547653
-192.288903 117.686535 1305.535781
-192.904229 116.385190 1305.524856
-193.536709 115.111893 1305.513900
-194.180853 113.860000 1305.503463
-194.540998 112.352687 1305.490524
-195.269431 111.200949 1305.481277
-195.718367 109.803210 1305.469375
-195.918542 108.199408 1305.456436
-195.345281 105.944375 1305.436965
-195.908469 104.703849 1305.426528
-196.306506 103.333343 1305.415481
-196.591805 101.882933 1305.402603
-197.300974 100.791541 1305.393691
-197.558141 99.343636 1305.381637
-197.873886 97.957003 1305.369918
-198.502047 96.823402 1305.360366
-199.366342 95.871932 1305.352462
-199.067520 94.057245 1305.336654
-200.576394 93.584395 1305.333053
-200.471640 91.940345 1305.319320
-201.144163 90.862707 1305.310317
-201.711920 89.714490 1305.301101
-202.405320 88.654861 1305.292251
-202.428011 87.151668 1305.279037
-202.823971 85.907752 1305.268600
-203.412639 84.793753 1305.259170
-203.916933 83.629131 1305.249557
-204.483880 82.506782 1305.239974
-204.852197 81.267181 1305.229843
-205.489756 80.192713 1305.220748
-205.833970 78.948802 1305.210922
-205.469991 77.310709 1305.196090
-206.044993 76.215519 1305.186935
-206.436963 75.021509 1305.177169
-206.641427 73.732253 1305.166335
-207.207958 72.639833 1305.157150
-207.762459 71.541322 1305.147903
-207.906348 70.238177 1305.137435
-207.988133 68.913533 1305.125839
-208.293492 67.705335 1305.116226
-208.399666 66.408965 1305.104934
-208.812413 65.260971 1305.094802
-208.651708 63.859579 1305.083114
-208.469372 62.462424 1305.071426
-208.274281 61.073588 1305.060012
-208.112394 59.712149 1305.048141
-207.298399 58.099865 1305.034561
-206.434040 56.493228 1305.021316
-205.455843 54.868935 1305.007400
-204.547716 53.298703 1304.994857
-203.636654 51.753415 1304.981429
-202.798277 50.259503 1304.968917
-201.320904 48.569360 1304.954910
-200.228129 47.043737 1304.941818
-199.070360 45.524897 1304.929244
-198.195927 44.124131 1304.917526
-197.221284 42.715637 1304.905593
-196.554930 41.422923 1304.894882
-195.511379 40.040316 1304.883041
-194.675154 38.740277 1304.872268
-194.150153 37.544467 1304.862197
-193.900154 36.434499 1304.852920
-193.703978 35.347304 1304.843704
-193.687692 34.311433 1304.834976
-192.721860 33.060958 1304.824508
-191.820252 31.846572 1304.814315
-191.676097 30.813585 1304.805648
-191.546079 29.789810 1304.797012
-190.586454 28.610670 1304.787002
-189.895924 27.502118 1304.777816
-189.633619 26.484687 1304.769302
-189.568026 25.507872 1304.761062
-189.366495 24.513519 1304.752731
-189.295114 23.544874 1304.744583
-188.495567 22.477659 1304.735580
-188.065084 21.475586 1304.727187
-187.998507 20.527999 1304.719253
-187.584710 19.544041 1304.710983
-187.101506 18.561958 1304.702712
-186.869440 17.614283 1304.694747
-186.071175 16.622710 1304.686385
-185.658397 15.676910 1304.678481
-185.662863 14.768785 1304.670822
-185.513377 13.852274 1304.663131
-185.275239 12.934702 1304.655441
-185.326862 12.034775 1304.647872
-184.990703 11.121091 1304.640182
-183.895259 10.193947 1304.632400
-183.271272 9.294570 1304.624832
-183.446440 8.413332 1304.617416
