-15.2496  302.917  849.223
-10.4543  296.96  849.735
-6.94529  290.128  849.776
-4.71438  282.801  849.4
-3.86688  275.187  848.605
-4.87534  267.594  847.304
-12.3027  262.639  844.597
-20.918  259.513  841.811
-29.4282  258.777  839.376
-37.1193  263.802  837.943
-43.9199  269.84  836.891
-50.3443  275.644  835.911
-55.5421  282.402  835.397
-56.1194  290.932  836.389
-53.6592  299.157  838.174
-49.1816  306.556  840.401
-42.5646  309.928  842.673
-35.4241  311.822  844.888
-28.0315  310.39  846.723
-21.4293  307.131  848.096
-4.9772  299.481  830.088
-0.274613  292.61  830.325
2.59974  284.769  830.149
3.77991  276.543  829.636
3.60051  268.199  828.868
1.77702  260.072  827.825
-6.18509  253.717  825.837
-15.625  249.288  823.753
-24.9804  249.989  822.138
-33.4458  255.895  821.14
-39.4921  264.145  820.784
-45.5848  272.635  820.44
-51.6437  281.131  820.102
-55.6618  290.428  820.201
-53.8963  300.685  821.422
-48.5535  309.481  823.156
-39.4164  312.848  825.091
-29.9666  313.389  826.833
-20.7186  310.294  828.218
-12.1092  305.913  829.376
1.67959  302.135  810.275
7.73729  293.067  810.416
11.5348  282.895  810.31
12.1886  272.02  809.898
9.4931  261.483  809.205
5.87248  251.177  808.442
-3.23756  245.925  807.414
-14.0586  244.273  806.391
-24.031  247.118  805.638
-31.3164  255.021  805.339
-36.6693  264.475  805.277
-41.6374  273.164  805.216
-46.5845  281.855  805.157
-51.5305  290.548  805.097
-54.1178  300.141  805.285
-51.866  309.731  805.897
-41.8318  316.485  807.071
-30.1519  318.271  808.175
-18.5983  314.44  809.025
-7.42676  309.871  809.809
9.69317  300.751  789.986
16.4962  290.134  789.986
20.1477  278.13  789.986
17.1686  265.928  789.986
12.7566  254.098  789.986
7.81655  242.524  789.986
-3.44229  238.977  789.986
-14.2148  240.752  789.986
-23.2184  248.102  789.986
-28.6107  258.61  789.986
-33.9276  269.113  789.986
-38.7161  278.591  789.986
-43.5053  288.069  789.986
-48.3488  297.506  789.986
-50.8965  307.537  789.986
-45.7032  316.622  789.986
-34.1534  321.152  789.986
-22.1328  319.219  789.986
-10.6968  314.351  789.986
0.509876  309.029  789.986
14.8418  298.295  754.016
23.3151  288.639  754.016
28.0114  277.131  754.016
24.0869  264.874  754.016
19.0926  253.001  754.016
13.9257  241.25  754.016
3.15971  236.071  754.016
-6.77211  239.639  754.016
-12.5452  250.146  754.016
-18.1407  260.787  754.016
-23.6513  271.384  754.016
-28.8309  281.327  754.016
-34.0214  291.271  754.016
-39.1777  301.21  754.016
-44.1909  311.157  754.016
-41.4627  321.146  754.016
-28.9107  322.742  754.016
-16.9772  318.347  754.016
-5.29441  313.264  754.016
6.03208  307.425  754.016
-3.12486  301.336  718.046
5.37616  296.05  718.046
12.5893  289.081  718.046
19.5891  281.884  718.046
26.5033  274.606  718.046
27.0061  265.193  718.046
18.5224  259.653  718.046
9.658  261.692  718.046
0.951473  266.681  718.046
-7.76364  271.606  718.046
-16.4845  276.46  718.046
-24.938  281.188  718.046
-33.3988  285.885  718.046
-41.857  290.58  718.046
-49.2359  296.406  718.046
-47.8895  305.822  718.046
-39.3626  310.377  718.046
-29.9703  310.571  718.046
-20.3893  309.431  718.046
-11.4529  306.249  718.046
-14.7167  261.061  680.985
