-90.5183 194.788 1360.45
-92.8586 205.416 1338.22
-95.1166 212.191 1319.14
-100.218 217.817 1302.02
-111.097 225.517 1277.76
-121.146 229.694 1251.9
-129.371 236.233 1226.62
-135.457 241.486 1200.79
-142.309 246.806 1174.57
-148.889 252.736 1148.34
-152.966 257.055 1121.49
-155.733 261.3 1094.86
-140.501 279.997 1068.37
-119.005 290.869 1041.67
-100.237 299.132 1014.4
-80.962 302.902 986.952
-62.746 302.883 958.823
-46.9305 301.783 930.399
-32.3295 297.924 901.547
-17.7041 294.811 873.166
-74.575 188.883 1351.59
-78.8844 198.555 1331.99
-81.1519 204.262 1314.86
-87.8412 212.166 1300.59
-98.8392 222.655 1277.4
-109.156 229.357 1252.5
-117.894 237.531 1227.85
-124.577 244.621 1202.68
-131.539 250.913 1176.89
-137.934 256.062 1150.65
-143.251 262.337 1124.3
-145.658 267.908 1098.21
-129.73 284.267 1071.48
-108.737 293.406 1044.49
-90.1634 300.051 1017.04
-71.7875 300.397 988.838
-55.583 298.966 960.077
-41.0615 296.633 931.207
-28.0205 292.771 902.014
-15.0967 288.959 873.029
-65.3693 181.216 1338.53
-69.079 188.949 1322.54
-71.4093 193.759 1308.8
-78.5769 203.434 1298.17
-87.4577 215.186 1275.65
-97.6594 224.991 1251.9
-106.346 234.884 1227.98
-113.636 243.962 1203.52
-120.505 252.959 1178.67
-127.089 259.017 1152.83
-133.077 265.787 1126.69
-135.953 271.725 1100.79
-119.208 286.295 1073.98
-98.0702 294.467 1047.04
-79.6902 297.319 1018.93
-63.222 295.924 990.126
-49.129 293.176 960.723
-36.6134 290.292 931.318
-24.9212 286.359 901.817
-13.7079 282.337 872.294
-60.5889 173.217 1324.27
-63.1374 178.567 1311.96
-65.0512 181.976 1301.8
-71.7094 192.19 1294.94
-79.2865 205.436 1273.1
-88.0582 217.115 1250.18
-96.1736 228.642 1226.98
-102.584 239.693 1203.37
-108.41 249.998 1179.22
-115.919 259.256 1154.34
-121.868 268.021 1128.93
-126.006 275.505 1103.39
-108.056 287.745 1076.46
-87.864 291.767 1048.6
-71.0714 292.155 1019.82
-55.8149 289.184 990.6
-44.3265 286.001 960.591
-33.3231 282.372 930.736
-23.6657 278.552 900.709
-13.7843 274.739 870.832
-57.4511 165.174 1309.7
-59.5958 167.695 1300.68
-61.0389 168.466 1293.63
-66.0625 178.13 1290.84
-73.1622 192.803 1269.62
-80.7308 206.189 1247.44
-87.9962 219.179 1224.92
-93.3009 232.661 1202.28
-98.7241 244.119 1178.7
-105.201 254.906 1154.57
-110.693 267.185 1130.36
-114.524 277.89 1105.9
-96.4466 285.677 1078.16
-78.6553 285.913 1049.19
-63.473 284.792 1019.95
-50.9126 280.235 989.917
-41.5129 277.238 959.538
-32.5588 273.581 929.171
-25.153 270.457 898.6
-17.9902 267.886 867.978
-56.9384 158.254 1296.88
-59.0733 159.686 1292.2
-60.5028 160.307 1288.61
-65.1173 166.733 1287.44
-70.4054 181.751 1266.47
-76.8142 195.035 1244.44
-83.1346 209.892 1222.65
-86.8776 223.922 1200.46
-90.3006 236.124 1177.47
-96.5441 248.332 1153.94
-100.648 261.67 1130.4
-102.689 275.721 1107.3
-86.0104 280.059 1078.76
-70.3456 278.106 1049.12
-57.9216 275.019 1019.04
-49.4089 270.242 988.097
-41.4318 267.348 957.445
-36.7371 265.951 926.273
-31.2227 264.913 895.417
-24.7135 263.725 864.698
-59.7017 150.921 1282.84
-59.7017 150.921 1282.84
-59.7017 150.921 1282.84
-59.7017 150.921 1282.84
-70.8037 168.79 1262.64
-75.6263 183.647 1241.22
-79.8777 198.823 1219.77
-82.5409 213.416 1197.95
-84.7601 225.977 1175.33
-89.1651 239.487 1152.54
-92.3822 253.433 1129.48
-92.0164 268.497 1107.23
-77.656 270.186 1077.92
-65.7918 267.62 1047.6
-56.7133 263.452 1016.66
-50.4585 259.666 985.468
-46.5386 259.072 954.183
-43.0088 260.212 923.098
-38.6937 262.17 892.303
-32.0987 262.633 861.752
-74.8639 152.014 1282.84
-74.8639 152.014 1282.84
-74.8639 152.014 1282.84
-74.8639 152.014 1282.84
-76.9908 158.138 1259.25
-79.1999 172.689 1237.85
-80.7954 187.208 1216.41
-81.1099 201.839 1194.87
-82.1179 214.75 1172.57
-85.0716 228.765 1150.22
-87.4454 243.032 1127.5
-85.2988 257.231 1105.47
-74.4101 258.1 1075.56
-65.4524 255.522 1044.79
-59.4419 252.479 1013.48
-56.3179 250.852 981.949
-53.4346 252.866 950.84
-50.6999 256.665 919.922
-46.0517 261.504 889.638
-39.3073 263.519 859.245
-90.0261 153.106 1282.84
-90.0261 153.106 1282.84
-90.0261 153.106 1282.84
-90.0261 153.106 1282.84
-84.6174 149.479 1256.4
-86.9708 163.481 1234.74
-86.0141 176.537 1212.99
-84.2282 190.354 1191.39
-84.2376 202.868 1169.1
-84.3746 216.633 1147.09
-86.6991 231.053 1124.49
-84.4426 244.615 1102.4
-77.3846 245.869 1071.98
-69.5853 244.787 1041.34
-66.2584 243.75 1009.83
-64.6 244.461 978.324
-61.9405 249.765 947.692
-58.6092 255.962 917.261
-53.0175 262.27 887.39
-45.6483 267.221 857.591
-105.188 154.199 1282.84
-105.188 154.199 1282.84
-105.188 154.199 1282.84
-105.188 154.199 1282.84
-98.018 148.642 1255.62
-99.2261 160.685 1233.23
-96.1852 171.09 1210.68
-92.5947 181.768 1188.23
-90.9545 192.882 1165.64
-89.0394 205.135 1143.42
-88.9692 219.73 1121.21
-89.6966 233.695 1098.76
-83.4718 235.871 1068.35
-77.6252 236.196 1037.55
-75.5302 237.88 1006.24
-73.842 241.265 975.153
-70.7412 249.535 945.072
-66.1754 257.146 915.097
-59.159 264.934 885.801
-50.2202 271.466 856.695
-120.351 155.291 1282.84
-120.351 155.291 1282.84
-120.351 155.291 1282.84
-120.351 155.291 1282.84
-113.778 153.36 1256.39
-113.284 160.212 1232.28
-111.146 169.787 1209.18
-107.666 179.26 1186.13
-102.242 184.179 1162.02
-99.0305 195.434 1139.55
-96.4887 208.92 1117.29
-93.3172 222.605 1095.33
-91.9412 227.306 1064.63
-87.5987 229.943 1033.91
-85.7396 234.613 1003.03
-83.8735 240.212 972.247
-79.7102 250.053 942.563
-73.9328 259.746 913.164
-64.7766 268.868 884.642
-55.1528 276.347 855.787
-135.513 156.383 1282.84
-135.513 156.383 1282.84
-135.513 156.383 1282.84
-135.513 156.383 1282.84
-126.582 153.032 1255.79
-124.926 159.6 1231.43
-122.876 168.689 1207.98
-119.458 178.969 1184.94
-115.539 180.975 1159.67
-111.562 191.521 1136.89
-107.105 200.998 1113.66
-101.381 213.396 1091.66
-101.102 220.599 1061.23
-98.4995 226.99 1030.86
-96.8263 234.017 1000.22
-94.4253 241.852 969.802
-88.1372 253.793 940.902
-80.8777 264.656 911.965
-70.2095 274.486 883.88
-58.3443 282.698 855.801
-150.675 157.476 1282.84
-150.675 157.476 1282.84
-150.675 157.476 1282.84
-150.675 157.476 1282.84
-141.512 153.382 1255.3
-139.463 158.703 1230.34
-135.752 167.048 1206.55
-131.09 178.516 1183.73
-127.954 181.146 1158.33
-124.135 191.338 1135.22
-119.608 199.142 1111.34
-112.391 207.348 1088.3
-112.981 216.821 1058.04
-110.223 227.151 1028.37
-107.674 236.412 998.161
-103.548 246.907 968.496
-95.173 260.347 940.249
-85.9232 271.819 911.833
-73.5016 281.527 884.135
-59.0782 289.941 856.896
-169.359 163.941 1292.38
-168.635 164.058 1288.46
-167.201 164.191 1286.26
-169.981 166.996 1285.24
-158.722 161.071 1256.88
-155.422 163.955 1230.93
-150.613 170.468 1206.39
-144.537 179.187 1182.66
-140.338 183.563 1157.61
-135.952 192.035 1133.87
-131.308 199.827 1109.79
-124.513 206.163 1085.99
-125.45 217.181 1055.76
-121.339 230.323 1026.73
-117.85 242.676 997.152
-110.773 254.895 968.346
-100.03 268.817 940.643
-88.2674 280.488 912.87
-73.8809 289.651 885.607
-57.6669 297.357 858.819
-169.583 173.416 1310.01
-169.654 175.471 1300.51
-169.079 175.978 1293.46
-166.78 185.544 1290.89
-165.692 178.021 1261.6
-163.517 178.898 1234.78
-160.882 182.342 1208.98
-157.49 185.921 1183.32
-153.047 189.665 1157.85
-147.441 196.275 1133.51
-142.845 203.222 1108.97
-136.997 208.039 1084.41
-137.601 222.007 1054.63
-131.104 237.476 1026.33
-124.563 251.565 997.583
-115.093 264.823 969.402
-101.797 278.349 942.166
-87.4654 289.313 914.94
-71.2384 297.567 888.078
-54.2225 304.618 861.467
-161.249 180.202 1323.77
-161.487 186.224 1312.56
-161.913 189.977 1302.43
-157.338 198.965 1295.12
-163.947 193.06 1266.1
-164.598 192.757 1238.73
-164.438 194.392 1212.12
-163.617 197.192 1185.87
-160.969 198.137 1159.27
-156.275 203.24 1134.22
-151.332 208.296 1109.04
-146.532 212.404 1083.94
-145.392 229.693 1055.04
-136.574 246.1 1027.21
-127.922 261.5 999.063
-116.09 274.832 971.361
-100.296 287.631 944.59
-83.6593 297.555 917.846
-65.9942 303.867 891.127
-47.7393 310.141 864.915
-150.864 185.516 1335.07
-150.612 193.943 1321.6
-151.412 199.941 1309.06
-146.574 206.98 1297.76
-156.473 205.399 1270.03
-160.666 204.891 1242.46
-162.936 207.158 1215.85
-164.91 209.108 1189.05
-165.442 209.49 1161.85
-162.864 211.91 1135.68
-158.981 216.093 1109.94
-154.511 219.621 1084.46
-150.186 239.343 1056.51
-139.335 256.526 1029.1
-128.349 272.363 1001.46
-113.946 285.108 974.215
-95.9095 295.932 947.648
-77.4929 303.224 920.974
-58.3385 307.353 894.451
-39.8204 311.883 868.182
-138.877 190.062 1345.15
-138.042 199.755 1328.74
-138.24 206.261 1313.55
-135.973 212.617 1299.69
-146.062 214.153 1273.02
-152.73 215.227 1245.9
-157.569 217.625 1219.22
-161.624 220.91 1192.64
-165.347 221.161 1165.04
-166.384 223.002 1138.17
-164.036 226.042 1111.79
-159.649 229.007 1086
-152.18 249.645 1058.67
-139.282 266.95 1031.6
-125.663 282.689 1004.49
-108.618 293.162 977.424
-88.6616 301.581 950.974
-69.6202 306.678 924.188
-50.6219 308.037 897.243
-31.6977 309.078 870.666
-126.191 194.18 1354.53
-124.971 204.402 1334.68
-125.262 210.299 1316.63
-124.582 217.384 1301.36
-135.339 219.701 1275.08
-143.188 222.274 1248.49
-149.151 226.244 1222.3
-154.68 230.399 1195.92
-161.136 232.429 1168.57
-164.485 235.082 1141.63
-165.245 237.111 1114.49
-161.994 239.223 1088.21
-151.884 260.433 1061.38
-136.519 277.492 1034.71
-119.477 291.28 1007.96
-99.7997 298.947 981.057
-79.7735 304.612 954.219
-61.1072 307.542 927.074
-43.3532 305.503 899.246
-25.7706 304.76 872.051
-109.489 196.4 1360.91
-110.302 207.487 1339.08
-110.71 214.415 1319.82
-112.707 219.272 1302.19
-124.074 223.816 1276.74
-132.597 227.094 1250.49
-139.757 232.135 1224.67
-145.493 237.126 1198.64
-153.248 241.33 1171.86
-159.121 245.005 1144.96
-161.559 248.077 1117.89
-161.8 250.21 1091.04
-148.484 271.222 1064.69
-129.92 286.054 1038.17
-110.275 296.084 1011.28
-91.1759 301.965 984.024
-71.3983 305.491 956.853
-53.5971 305.56 929.056
-37.5895 302.21 900.581
-21.1514 299.993 872.865
