-67.5034 304.26 901.992
-67.5032 304.259 901.992
-62.3005 262.166 902.992
-62.2982 262.148 902.992
-62.3148 262.278 902.992
-62.3144 262.274 902.992
-62.314 262.271 902.992
-62.3137 262.268 902.992
-62.3133 262.265 902.992
-67.7327 304.447 902.992
-67.7324 304.444 902.992
-67.732 304.441 902.992
-67.7317 304.438 902.992
-67.7313 304.435 902.992
-67.7309 304.432 902.992
-67.7305 304.429 902.992
-67.7301 304.426 902.992
-62.7157 262.252 904.96
-62.7142 262.246 904.957
-62.7162 262.291 904.938
-62.7136 262.29 904.926
-62.7096 262.289 904.907
-62.7023 262.289 904.872
-62.6846 262.29 904.785
-62.5707 262.301 904.223
-67.9816 304.786 903.992
-67.9811 304.782 903.992
-67.9806 304.778 903.992
-67.9801 304.774 903.992
-68.192 304.953 904.912
-68.1951 304.954 904.926
-68.1972 304.955 904.936
-68.1987 304.954 904.943
-62.9117 262.134 905.988
-62.727 262.289 904.992
-62.7269 262.288 904.992
-62.7267 262.287 904.992
-62.7266 262.286 904.992
-62.7264 262.285 904.992
-62.7263 262.284 904.992
-68.2113 304.975 904.992
-68.2111 304.973 904.992
-68.2109 304.972 904.992
-68.2107 304.971 904.992
-68.403 304.912 905.965
-68.4038 304.911 905.97
-68.4044 304.91 905.973
-68.4048 304.91 905.975
-62.9124 262.134 905.992
-62.913 262.138 905.992
-62.9129 262.138 905.992
-62.9129 262.138 905.992
-62.9129 262.138 905.992
-62.9129 262.138 905.992
-62.9129 262.137 905.992
-68.4086 304.913 905.992
-68.4086 304.912 905.992
-68.4085 304.912 905.992
-68.4084 304.911 905.992
-68.4084 304.91 905.992
-68.4083 304.91 905.992
-68.4082 304.909 905.992
-68.4081 304.909 905.992
-63.0831 261.864 906.992
-63.0953 261.959 906.992
-63.095 261.956 906.992
-63.0947 261.954 906.992
-63.0943 261.951 906.992
-63.094 261.949 906.992
-63.0937 261.946 906.992
-68.6054 304.845 906.992
-68.6049 304.842 906.992
-68.6045 304.839 906.992
-68.7885 304.77 907.931
-68.791 304.768 907.944
-68.7926 304.767 907.953
-68.7936 304.766 907.959
-68.7944 304.764 907.963
-63.4196 261.36 908.946
-63.4175 261.353 908.94
-63.4214 261.423 908.915
-63.4183 261.426 908.898
-63.2637 261.671 907.992
-63.2632 261.667 907.992
-63.2627 261.663 907.992
-63.2622 261.66 907.992
-68.8008 304.769 907.992
-68.8007 304.768 907.992
-68.8006 304.767 907.992
-68.8005 304.766 907.992
-68.8004 304.765 907.992
-68.8003 304.764 907.992
-68.8002 304.763 907.992
-68.8001 304.763 907.992
-63.4268 261.343 908.992
-63.4256 261.333 908.992
-63.4342 261.4 908.992
-63.434 261.399 908.992
-63.4338 261.397 908.992
-63.4336 261.396 908.992
-63.4334 261.394 908.992
-68.9959 304.688 908.992
-69.0294 304.95 908.992
-69.0207 304.882 908.992
-69.0154 304.84 908.992
-68.9944 304.677 908.992
-68.9941 304.674 908.992
-68.9937 304.671 908.992
-68.9933 304.669 908.992
-63.7813 260.978 910.946
-63.7791 260.97 910.941
-63.7764 260.961 910.933
-63.7794 261.038 910.9
-63.6115 261.182 909.992
-63.6111 261.179 909.992
-63.6106 261.175 909.992
-63.6102 261.171 909.992
-69.2874 305.359 909.992
-69.2544 305.103 909.992
-69.2379 304.974 909.992
-69.2278 304.895 909.992
-69.2208 304.841 909.992
-69.2157 304.801 909.992
-69.1873 304.58 909.992
-69.1866 304.574 909.992
-69.1859 304.569 909.992
-63.7891 260.966 910.992
-63.7879 260.956 910.992
-63.7864 260.944 910.992
-63.7843 260.928 910.992
-63.7813 260.905 910.992
-63.7959 261.018 910.992
-63.7957 261.017 910.992
-69.6785 305.951 911.526
-69.7596 306.035 911.869
-69.7718 306.047 911.921
-69.7767 306.051 911.942
-69.7793 306.053 911.953
-69.7809 306.054 911.96
-69.782 306.055 911.965
-69.7827 306.055 911.969
-63.9945 260.966 911.992
-63.9926 260.951 911.992
-63.9901 260.932 911.992
-63.9867 260.906 911.992
-63.9819 260.868 911.992
-64.0054 261.051 911.992
-64.0051 261.048 911.992
-69.789 306.066 911.992
-69.7889 306.066 911.992
-69.7888 306.065 911.992
-69.7887 306.064 911.992
-69.7886 306.064 911.992
-69.7885 306.063 911.992
-69.7884 306.062 911.992
-64.3544 260.614 913.965
-64.353 260.61 913.961
-64.3512 260.605 913.955
-64.3485 260.597 913.947
-64.3443 260.585 913.934
-64.3366 260.564 913.91
-64.2031 260.992 912.992
-70.0136 306.216 912.992
-70.0133 306.214 912.992
-70.013 306.212 912.992
-70.0127 306.21 912.992
-70.0124 306.207 912.992
-70.0121 306.205 912.992
-70.0118 306.203 912.992
-64.3584 260.602 913.992
-64.3576 260.596 913.992
-64.3566 260.588 913.992
-64.355 260.576 913.992
-64.3525 260.556 913.992
-64.3476 260.518 913.992
-70.1974 306.049 913.992
-70.1969 306.045 913.992
-70.3568 305.951 914.83
-70.3655 305.944 914.876
-70.3702 305.939 914.902
-70.3731 305.936 914.918
-70.375 305.933 914.929
-70.3763 305.93 914.938
-64.7311 260.358 915.959
-64.7289 260.351 915.954
-64.7259 260.34 915.946
-64.5113 260.194 914.992
-64.5042 260.138 914.992
-64.5321 260.355 914.992
-70.3883 305.937 914.992
-70.3881 305.935 914.992
-70.3879 305.933 914.992
-70.3877 305.932 914.992
-70.6055 306.062 915.971
-70.6063 306.063 915.975
-70.6068 306.062 915.977
-64.7382 260.361 915.992
-64.7373 260.354 915.992
-64.7361 260.345 915.992
-64.7344 260.332 915.992
-64.7316 260.31 915.992
-64.726 260.267 915.992
-70.6104 306.067 915.992
-70.6104 306.067 915.992
-70.6103 306.066 915.992
-70.6103 306.066 915.992
-70.6102 306.065 915.992
-70.6102 306.065 915.992
-70.6101 306.064 915.992
-65.064 259.747 917.963
-65.0624 259.743 917.958
-65.0601 259.738 917.95
-65.0565 259.729 917.937
-65.0499 259.715 917.914
-65.0335 259.679 917.857
-70.8209 306.107 916.992
-70.8205 306.103 916.992
-70.9594 305.726 917.905
-70.9631 305.715 917.93
-70.9651 305.708 917.944
-70.9663 305.703 917.953
-70.9671 305.7 917.959
-65.0682 259.733 917.992
-65.0675 259.728 917.992
-65.0664 259.72 917.992
-65.0649 259.708 917.992
-65.0625 259.689 917.992
-65.0577 259.651 917.992
-70.9729 305.692 917.992
-70.9728 305.691 917.992
-70.9727 305.69 917.992
-70.9726 305.689 917.992
-70.9725 305.688 917.992
-70.9724 305.687 917.992
-70.9723 305.687 917.992
-65.438 259.433 919.981
-65.4374 259.431 919.979
-65.4365 259.427 919.977
-65.4352 259.423 919.973
-65.2057 259.205 918.992
-65.1979 259.145 918.992
-65.2273 259.373 918.992
-71.0445 305.592 918.403
-70.9973 305.658 918.132
-71.202 304.752 919.695
-71.207 304.681 919.764
-71.2099 304.635 919.807
-71.2117 304.603 919.836
-71.2129 304.578 919.857
-65.4405 259.435 919.992
-65.4403 259.433 919.992
-65.4399 259.43 919.992
-65.4395 259.426 919.992
-65.4388 259.421 919.992
-65.4376 259.412 919.992
-65.4419 259.445 919.992
-71.3117 305.132 919.992
-71.2799 304.885 919.992
-71.44 304.799 920.825
-71.4427 304.758 920.864
-71.4442 304.732 920.888
-71.4452 304.713 920.904
-71.4458 304.699 920.916
-65.6446 259.424 920.992
-65.6427 259.41 920.992
-65.6403 259.391 920.992
-65.637 259.366 920.992
-65.6548 259.504 920.992
-65.6545 259.502 920.992
-65.6542 259.5 920.992
-71.4533 304.636 920.992
-71.4834 304.87 920.992
-71.475 304.805 920.992
-71.6472 304.639 921.934
-71.6475 304.625 921.944
-71.6477 304.615 921.952
-65.9854 260.479 921.992
-65.9842 260.469 921.992
-65.9826 260.457 921.992
-65.9849 260.475 921.992
-65.9821 260.454 921.992
-65.9766 260.41 921.992
-71.6503 304.57 921.992
-71.6644 304.68 921.992
-71.6604 304.649 921.992
-71.6581 304.631 921.992
-71.6566 304.619 921.992
-71.6554 304.611 921.992
-66.1552 260.202 922.992
-66.4214 260.747 923.947
-66.16 260.24 922.992
-66.1533 260.188 922.992
-66.1423 260.101 922.992
-66.1842 260.428 922.992
-71.8521 304.543 922.992
-71.8516 304.539 922.992
-71.8511 304.536 922.992
-72.1103 305.116 923.891
-72.1124 305.102 923.91
-72.1138 305.092 923.923
-72.1147 305.084 923.933
-66.5052 259.878 924.899
-66.4998 259.856 924.887
-66.4321 260.759 923.992
-66.4301 260.744 923.992
-66.4269 260.719 923.992
-66.4204 260.668 923.992
-72.1233 305.055 923.992
-72.123 305.054 923.992
-72.1401 305.186 923.992
-72.1362 305.156 923.992
-72.1336 305.136 923.992
-72.1318 305.121 923.992
-66.5272 259.901 924.992
-66.5247 259.882 924.992
-66.5413 260.011 924.992
-66.5409 260.008 924.992
-66.5406 260.005 924.992
-66.5402 260.002 924.992
-66.5399 260 924.992
-72.39 305.533 924.992
-72.3896 305.53 924.992
-72.3891 305.526 924.992
-72.4177 305.749 924.992
-72.4121 305.705 924.992
-72.5287 305.147 925.909
-72.5283 305.126 925.92
-66.5203 258.249 925.992
-66.52 258.247 925.992
-66.5197 258.245 925.992
-66.5194 258.242 925.992
-66.5192 258.24 925.992
-66.5189 258.238 925.992
-66.5186 258.236 925.992
-66.5183 258.234 925.992
-72.5292 305.019 925.992
-72.529 305.016 925.992
-72.5499 305.179 925.992
-72.5451 305.142 925.992
-72.5419 305.117 925.992
-72.6682 304.536 926.971
-66.6469 257.636 926.992
-66.6468 257.635 926.992
-66.6467 257.635 926.992
-66.6466 257.634 926.992
-66.6465 257.633 926.992
-66.6465 257.633 926.992
-66.6464 257.632 926.992
-72.6683 304.503 926.992
-72.6683 304.502 926.992
-72.6736 304.544 926.992
-72.6724 304.534 926.992
-72.6716 304.528 926.992
-72.671 304.524 926.992
-67.1549 258.603 928.861
-67.1483 258.579 928.844
-67.1396 258.549 928.821
-67.128 258.509 928.789
-66.6564 257.631 927.041
-66.6604 257.63 927.061
-66.6704 257.628 927.112
-66.7345 257.617 927.431
-72.8788 304.543 927.992
-72.9218 304.877 927.992
-72.9093 304.78 927.992
-72.9022 304.725 927.992
-72.8975 304.688 927.992
-72.8941 304.662 927.992
-72.8915 304.641 927.992
-67.3151 258.173 929.91
-67.3116 258.163 929.899
-67.307 258.152 929.884
-67.3009 258.136 929.864
-67.2921 258.115 929.834
-67.2779 258.081 929.786
-67.2515 258.021 929.695
-67.1832 257.867 929.459
-73.2728 305.629 929.231
-73.3415 305.423 929.694
-73.3579 305.371 929.807
-73.3652 305.347 929.857
-73.3692 305.332 929.886
-73.3717 305.322 929.905
-73.3734 305.314 929.918
-67.3252 258.121 929.992
-67.3229 258.103 929.992
-67.32 258.08 929.992
-67.316 258.049 929.992
-67.3099 258.001 929.992
-67.2994 257.92 929.992
-67.2765 257.742 929.992
-73.3861 305.294 929.992
-73.3858 305.292 929.992
-73.3856 305.29 929.992
-73.5275 304.852 930.957
-73.5285 304.848 930.965
-73.5291 304.846 930.969
-73.5295 304.844 930.973
-67.6693 257.689 931.938
-67.6662 257.678 931.93
-67.6622 257.664 931.919
-67.6566 257.644 931.904
-67.6481 257.614 931.881
-67.4242 257.293 930.992
-67.4045 257.14 930.992
-67.3607 256.798 930.992
-73.5328 304.838 930.992
-73.5327 304.837 930.992
-73.5327 304.837 930.992
-73.5326 304.836 930.992
-73.5325 304.836 930.992
-73.5325 304.835 930.992
-73.5324 304.835 930.992
-67.6804 257.689 931.992
-67.679 257.678 931.992
-67.6771 257.663 931.992
-67.6746 257.643 931.992
-67.6707 257.613 931.992
-67.6639 257.56 931.992
-67.6489 257.444 931.992
-73.7645 305.043 931.992
-73.7643 305.042 931.992
-73.7641 305.04 931.992
-73.7639 305.038 931.992
-73.7637 305.037 931.992
-73.7635 305.035 931.992
-68.0913 257.776 933.938
-68.0882 257.765 933.93
-68.0841 257.751 933.919
-67.8908 257.728 932.992
-67.8856 257.688 932.992
-67.8766 257.618 932.992
-67.9076 257.859 932.992
-74.0021 305.294 932.992
-74.0018 305.292 932.992
-74.0015 305.289 932.992
-74.0011 305.287 932.992
-74.1837 305.278 933.887
-74.1871 305.276 933.904
-68.1022 257.775 933.992
-68.1009 257.765 933.992
-68.0991 257.751 933.992
-68.0966 257.732 933.992
-68.0929 257.703 933.992
-68.0864 257.652 933.992
-68.1089 257.827 933.992
-74.2063 305.286 933.992
-74.2061 305.284 933.992
-74.2058 305.281 933.992
-74.2056 305.279 933.992
-74.2053 305.277 933.992
-74.4023 305.321 934.924
-68.3175 256.451 935.869
-68.3141 256.452 935.852
-68.3097 256.453 935.83
-68.3039 256.457 935.799
-68.2956 256.464 935.754
-68.2823 256.478 935.681
-68.2576 256.508 935.542
-68.1933 256.592 935.176
-74.4071 305.249 934.992
-74.4068 305.248 934.992
-74.4066 305.246 934.992
-74.4064 305.244 934.992
-74.4061 305.242 934.992
-74.4158 305.317 934.992
-68.5032 256.128 936.975
-68.5027 256.129 936.972
-68.502 256.129 936.968
-68.5009 256.13 936.963
-68.4993 256.132 936.953
-68.3358 256.397 935.992
-68.3353 256.393 935.992
-68.3349 256.389 935.992
-74.5954 305.117 935.992
-74.595 305.114 935.992
-74.5947 305.111 935.992
-74.5943 305.108 935.992
-74.5939 305.105 935.992
-74.5935 305.102 935.992
-68.506 256.123 936.992
-68.5059 256.123 936.992
-68.5059 256.122 936.992
-68.5058 256.122 936.992
-68.5058 256.121 936.992
-68.5057 256.121 936.992
-68.5057 256.12 936.992
-74.7668 304.98 936.913
-74.6716 305.056 936.401
-75.0517 305.687 937.858
-75.064 305.719 937.898
-75.0706 305.735 937.919
-75.0747 305.745 937.933
-75.0774 305.752 937.942
-68.818 255.481 938.913
-68.8159 255.483 938.902
-68.6701 255.8 937.993
-68.795 255.356 938.879
-68.6693 255.794 937.993
-68.6689 255.791 937.993
-68.6685 255.788 937.993
-68.6681 255.785 937.993
-75.0944 305.803 937.993
-75.2285 305.401 938.898
-75.2403 305.431 938.936
-75.2452 305.444 938.952
-75.248 305.451 938.961
-75.2497 305.455 938.967
-75.2508 305.457 938.971
-68.8187 255.359 938.993
-68.8166 255.342 938.993
-68.8138 255.321 938.993
-68.8099 255.29 938.993
-68.8293 255.442 938.993
-68.829 255.439 938.993
-68.8288 255.437 938.993
-75.2581 305.479 938.993
-75.258 305.478 938.993
-75.2502 305.417 938.993
-75.2522 305.433 938.993
-75.2533 305.442 938.993
-75.2541 305.447 938.993
-69.194 255.129 940.965
-69.1923 255.123 940.959
-69.1898 255.115 940.952
-69.1859 255.103 940.941
-69.0136 255.277 939.993
-69.0131 255.274 939.993
-69.0127 255.27 939.993
-75.4518 305.388 939.993
-75.4515 305.385 939.993
-75.4512 305.383 939.993
-75.4509 305.381 939.993
-75.4322 305.236 939.993
-75.4351 305.258 939.993
-75.4499 305.374 939.993
-69.1998 255.129 940.993
-69.1992 255.123 940.993
-69.1983 255.116 940.993
-69.197 255.107 940.993
-69.2032 255.155 940.993
-69.2031 255.154 940.993
-69.203 255.153 940.993
-75.6526 305.352 940.993
-75.6521 305.349 940.993
-75.6516 305.345 940.993
-75.7932 305.116 941.826
-75.7989 305.104 941.861
-75.8025 305.095 941.884
-75.8049 305.088 941.9
-69.3814 253.417 942.948
-69.38 253.418 942.94
-69.2253 253.728 941.993
-69.225 253.726 941.993
-69.2247 253.724 941.993
-69.2245 253.722 941.993
-69.2242 253.72 941.993
-75.8228 305.079 941.993
-75.8224 305.076 941.993
-75.8221 305.074 941.993
-75.9716 304.804 942.889
-75.975 304.796 942.911
-75.9771 304.79 942.925
-75.9786 304.786 942.935
-69.3887 253.402 942.993
-69.3885 253.401 942.993
-69.3884 253.4 942.993
-69.3882 253.398 942.993
-69.3881 253.397 942.993
-69.3879 253.396 942.993
-69.3878 253.395 942.993
-75.9895 304.778 942.993
-75.9893 304.777 942.993
-75.9891 304.775 942.993
-75.9889 304.774 942.993
-75.9887 304.772 942.993
-75.9885 304.77 942.993
-69.5841 253.325 943.993
-69.5838 253.322 943.993
-69.5835 253.32 943.993
-69.5832 253.318 943.993
-69.5829 253.315 943.993
-69.5826 253.313 943.993
-69.5823 253.311 943.993
-76.1921 304.757 943.993
-76.1917 304.753 943.993
-76.1913 304.75 943.993
-76.1909 304.747 943.993
-76.1905 304.744 943.993
-76.19 304.741 943.993
-76.1896 304.738 943.993
-69.9657 253.183 945.94
-69.9638 253.184 945.93
-69.9611 253.184 945.916
-69.9569 253.186 945.895
-69.7895 253.325 944.993
-69.7891 253.322 944.993
-69.7887 253.319 944.993
-76.4073 304.833 944.993
-76.4068 304.829 944.993
-76.4063 304.825 944.993
-76.564 304.721 945.826
-76.5705 304.714 945.862
-76.5745 304.709 945.885
-76.5772 304.704 945.901
-70.1486 252.953 946.974
-70.1479 252.953 946.971
-70.1471 252.954 946.966
-69.975 253.171 945.993
-69.9749 253.17 945.993
-69.9747 253.168 945.993
-69.9745 253.167 945.993
-76.5966 304.709 945.993
-76.5963 304.706 945.993
-76.596 304.704 945.993
-76.7561 304.52 946.888
-76.7598 304.513 946.91
-76.7621 304.509 946.924
-76.7637 304.505 946.934
-70.1519 252.949 946.993
-70.1518 252.949 946.993
-70.1518 252.948 946.993
-70.1517 252.948 946.993
-70.1516 252.947 946.993
-70.1516 252.947 946.993
-70.1515 252.946 946.993
-76.7756 304.503 946.993
-76.7754 304.502 946.993
-76.7751 304.5 946.993
-76.9598 304.362 947.979
-76.9604 304.362 947.982
-76.9607 304.361 947.984
-70.5157 252.657 948.948
-70.5141 252.657 948.94
-70.5117 252.657 948.928
-70.5082 252.658 948.91
-70.3363 252.786 947.993
-70.3359 252.783 947.993
-70.3355 252.78 947.993
-76.9626 304.361 947.993
-76.9626 304.361 947.993
-76.9626 304.36 947.993
-76.9625 304.36 947.993
-76.9625 304.36 947.993
-76.9625 304.36 947.993
-70.5174 252.597 948.993
-70.5239 252.648 948.993
-70.5237 252.647 948.993
-70.5236 252.645 948.993
-70.5235 252.644 948.993
-70.5233 252.643 948.993
-77.1535 304.248 948.993
-77.1532 304.246 948.993
-77.1529 304.243 948.993
-77.1525 304.241 948.993
-77.1522 304.238 948.993
-77.4592 305.07 949.967
-77.4604 305.073 949.971
-70.833 251.965 950.926
-70.8292 251.954 950.914
-70.8366 252.049 950.891
-70.8318 252.057 950.862
-70.6914 252.353 949.993
-70.6909 252.35 949.993
-70.6905 252.346 949.993
-77.4448 304.917 949.993
-77.4568 305.011 949.993
-77.4605 305.039 949.993
-77.4622 305.053 949.993
-77.4632 305.06 949.993
-77.4638 305.065 949.993
-70.8443 251.945 950.993
-70.8426 251.932 950.993
-70.8531 252.013 950.993
-70.8528 252.011 950.993
-70.8526 252.01 950.993
-70.8524 252.008 950.993
-70.8522 252.006 950.993
-77.6315 304.772 950.993
-77.631 304.768 950.993
-77.7987 304.617 951.904
-77.8077 304.645 951.931
-77.8125 304.659 951.945
-77.8155 304.668 951.954
-77.8175 304.673 951.96
-71.0335 251.82 951.993
-71.0305 251.796 951.993
-71.0487 251.937 951.993
-71.0483 251.934 951.993
-71.0479 251.931 951.993
-71.0475 251.928 951.993
-71.0471 251.925 951.993
-77.8294 304.714 951.993
-77.8293 304.713 951.993
-77.8292 304.712 951.993
-77.8291 304.711 951.993
-77.829 304.711 951.993
-77.8289 304.71 951.993
-71.4312 251.816 953.931
-71.4371 251.886 953.916
-71.4337 251.888 953.899
-71.4284 251.89 953.872
-71.2659 252.03 952.993
-71.2655 252.026 952.993
-71.265 252.023 952.993
-78.0499 304.832 952.993
-78.0496 304.83 952.993
-78.0494 304.828 952.993
-78.0491 304.826 952.993
-78.0489 304.824 952.993
-78.0486 304.822 952.993
-71.6081 251.507 954.987
-71.6077 251.506 954.985
-71.6085 251.515 954.983
-71.4508 251.87 953.993
-71.4506 251.869 953.993
-71.4504 251.867 953.993
-71.4502 251.866 953.993
-78.2361 304.683 953.993
-78.2356 304.679 953.993
-78.2351 304.675 953.993
-78.367 304.384 954.818
-78.3727 304.368 954.855
-78.3762 304.357 954.879
-78.3786 304.348 954.896
-71.609 251.504 954.993
-71.6088 251.502 954.993
-71.6084 251.499 954.993
-71.61 251.511 954.993
-71.61 251.511 954.993
-71.6099 251.511 954.993
-78.3963 304.331 954.993
-78.3959 304.329 954.993
-78.3956 304.326 954.993
-78.3952 304.323 954.993
-78.3949 304.32 954.993
-78.3945 304.318 954.993
-71.8434 250.212 956.943
-71.8415 250.211 956.934
-71.8387 250.209 956.921
-71.8346 250.208 956.902
-71.6496 250.222 955.993
-71.6493 250.219 955.993
-71.6489 250.216 955.993
-78.6759 304.909 955.993
-78.6993 305.092 955.993
-78.7071 305.152 955.993
-78.9255 305.261 956.989
-78.9258 305.262 956.99
-78.926 305.262 956.99
-71.8536 250.211 956.993
-71.8534 250.209 956.993
-71.8532 250.208 956.993
-71.8531 250.207 956.993
-71.8529 250.205 956.993
-71.8527 250.204 956.993
-71.8526 250.203 956.993
-78.927 305.266 956.993
-78.9259 305.257 956.993
-78.9263 305.26 956.993
-78.9265 305.261 956.993
-78.9266 305.262 956.993
-78.9266 305.263 956.993
-72.1399 249.349 958.926
-72.1381 249.355 958.914
-72.1357 249.364 958.897
-72.1319 249.378 958.869
-72.0193 249.902 957.993
-72.0188 249.899 957.993
-72.0184 249.895 957.993
-79.0924 304.954 957.993
-79.092 304.951 957.993
-79.0916 304.949 957.993
-79.2118 304.384 958.931
-79.206 304.32 958.943
-79.2083 304.324 958.952
-72.1484 249.309 958.993
-72.1482 249.307 958.993
-72.148 249.305 958.993
-72.1477 249.304 958.993
-72.1475 249.302 958.993
-72.1473 249.3 958.993
-72.1471 249.299 958.993
-79.2201 304.35 958.993
-79.22 304.349 958.993
-79.2199 304.348 958.993
-79.2197 304.347 958.993
-79.2196 304.346 958.993
-79.2195 304.345 958.993
-72.5396 249.277 960.918
-72.5363 249.272 960.905
-72.5315 249.266 960.885
-72.5241 249.258 960.854
-72.3245 249.081 959.993
-72.3241 249.078 959.993
-72.3236 249.074 959.993
-79.3954 304.116 959.993
-79.3949 304.112 959.993
-79.5907 304.275 960.845
-79.5999 304.281 960.886
-79.6051 304.284 960.909
-79.6083 304.285 960.924
-72.5569 249.292 960.993
-72.5566 249.29 960.993
-72.5564 249.288 960.993
-72.5562 249.286 960.993
-72.5559 249.284 960.993
-72.5557 249.282 960.993
-72.5554 249.28 960.993
-79.6253 304.307 960.993
-79.6251 304.306 960.993
-79.6249 304.304 960.993
-79.6246 304.302 960.993
-79.6244 304.301 960.993
-79.6242 304.299 960.993
-72.6043 248.062 961.993
-72.6042 248.062 961.993
-72.6042 248.061 961.993
-72.6041 248.061 961.993
-72.6041 248.061 961.993
-72.604 248.06 961.993
-79.8159 304.192 961.993
-79.8154 304.188 961.993
-79.8148 304.184 961.993
-79.9384 303.73 962.878
-79.9417 303.715 962.904
-79.9437 303.705 962.92
-72.7481 247.583 962.993
-72.7478 247.581 962.993
-72.7476 247.579 962.993
-72.7473 247.577 962.993
-72.747 247.575 962.993
-72.7467 247.573 962.993
-79.9551 303.678 962.993
-79.9549 303.676 962.993
-79.9546 303.674 962.993
-79.9544 303.672 962.993
-79.9542 303.67 962.993
-79.9539 303.669 962.993
-73.1559 247.64 964.944
-73.1535 247.636 964.934
-73.1502 247.631 964.921
-73.145 247.624 964.9
-73.1355 247.613 964.861
-72.9287 247.391 963.993
-72.9282 247.387 963.993
-80.1326 303.461 963.993
-80.1321 303.457 963.993
-80.1316 303.453 963.993
-80.1311 303.45 963.993
-80.1307 303.446 963.993
-80.1302 303.442 963.993
-73.1674 247.65 964.993
-73.1672 247.649 964.993
-73.1671 247.648 964.993
-73.1669 247.646 964.993
-73.1667 247.645 964.993
-73.1666 247.644 964.993
-80.5102 304.801 964.993
-80.5099 304.799 964.993
-80.5097 304.797 964.993
-80.6858 304.638 965.95
-80.6824 304.598 965.959
-80.6842 304.603 965.965
-73.4791 247.094 966.859
-73.4754 247.101 966.836
-73.3552 247.513 965.993
-73.3546 247.509 965.993
-73.3541 247.505 965.993
-73.3536 247.501 965.993
-73.3531 247.497 965.993
-80.694 304.634 965.993
-80.6939 304.633 965.993
-80.6938 304.632 965.993
-80.6937 304.631 965.993
-80.6936 304.631 965.993
-73.6438 246.727 967.891
-73.6406 246.73 967.873
-73.6361 246.735 967.848
-73.6295 246.745 967.809
-73.4962 247.012 966.993
-73.4957 247.009 966.993
-73.4952 247.005 966.993
-80.8355 304.137 966.993
-80.8354 304.136 966.993
-80.8353 304.136 966.993
-80.8353 304.135 966.993
-80.8352 304.135 966.993
-73.8606 246.678 968.977
-73.8599 246.677 968.974
-73.859 246.677 968.97
-73.8575 246.676 968.963
-73.8549 246.676 968.95
-73.6586 246.678 967.993
-73.6582 246.675 967.993
-80.9961 303.788 967.993
-80.9956 303.784 967.993
-81.1653 303.743 968.846
-81.1735 303.739 968.888
-81.178 303.736 968.912
-81.1807 303.734 968.927
-73.8638 246.677 968.993
-73.8637 246.677 968.993
-73.8636 246.676 968.993
-73.8636 246.676 968.993
-73.8635 246.675 968.993
-73.8635 246.675 968.993
-81.1952 303.74 968.993
-81.1949 303.738 968.993
-81.3895 303.654 969.993
-81.3895 303.654 969.993
-81.3895 303.654 969.993
-81.3895 303.654 969.993
-74.2302 246.491 970.894
-74.2268 246.491 970.877
-74.064 246.637 969.993
-74.0636 246.634 969.993
-74.0632 246.631 969.993
-74.0629 246.628 969.993
-74.0625 246.626 969.993
-81.3895 303.654 969.993
-81.3895 303.654 969.993
-81.3895 303.654 969.993
-81.3895 303.654 969.993
-81.3895 303.654 969.993
-74.4305 246.406 971.922
-74.4278 246.405 971.91
-74.4242 246.404 971.893
-74.4187 246.404 971.866
-74.2469 246.463 970.993
-74.2466 246.46 970.993
-74.2462 246.457 970.993
-81.5733 303.486 970.993
-81.5733 303.486 970.993
-81.5733 303.486 970.993
-81.5733 303.486 970.993
-81.5733 303.486 970.993
-74.4441 246.399 971.993
-74.4438 246.397 971.993
-74.4436 246.395 971.993
-74.4433 246.393 971.993
-74.4431 246.391 971.993
-74.4428 246.389 971.993
-81.7672 303.397 971.993
-81.7667 303.393 971.993
-81.9797 303.516 972.954
-81.9823 303.517 972.966
-81.9837 303.517 972.972
-81.9845 303.517 972.976
-74.7401 245.58 973.947
-74.7394 245.588 973.939
-74.7385 245.599 973.927
-74.7371 245.617 973.909
-74.7348 245.65 973.877
-74.5302 245.471 972.993
-74.5297 245.467 972.993
-81.9886 303.522 972.993
-81.9885 303.521 972.993
-81.9885 303.521 972.993
-81.9884 303.521 972.993
-81.9884 303.52 972.993
-74.75 245.583 973.993
-74.7512 245.592 973.993
-74.8876 245.081 974.978
-74.7425 245.525 973.993
-74.7424 245.524 973.993
-74.7422 245.523 973.993
-82.1912 303.5 973.993
-82.1909 303.498 973.993
-82.1906 303.496 973.993
-82.1903 303.494 973.993
-82.3264 303.044 974.937
-82.3277 303.038 974.947
-74.8913 245.085 974.993
-74.8915 245.087 974.993
-74.8899 245.074 974.993
-74.8898 245.073 974.993
-74.8898 245.073 974.993
-74.8898 245.073 974.993
-82.3351 303.022 974.993
-82.335 303.021 974.993
-82.3348 303.02 974.993
-82.4907 302.648 975.985
-82.491 302.647 975.987
-82.4911 302.647 975.988
-75.0535 244.749 975.993
-75.0531 244.746 975.993
-75.0526 244.742 975.993
-75.0522 244.739 975.993
-75.0517 244.735 975.993
-75.0513 244.732 975.993
-75.0508 244.728 975.993
-82.4921 302.646 975.993
-82.492 302.645 975.993
-82.492 302.645 975.993
-82.492 302.645 975.993
-82.492 302.645 975.993
-75.3212 243.766 977.911
-75.32 243.783 977.895
-75.3182 243.809 977.87
-75.3156 243.854 977.83
-75.121 243.674 976.994
-75.1205 243.671 976.994
-82.7013 302.674 976.994
-82.7009 302.671 976.994
-82.7005 302.668 976.994
-82.8763 302.623 977.879
-82.8809 302.619 977.903
-82.8839 302.616 977.919
-75.3374 243.761 977.994
-75.3393 243.775 977.994
-75.3422 243.798 977.994
-75.3469 243.835 977.994
-75.325 243.664 977.994
-75.3247 243.661 977.994
-82.9001 302.623 977.994
-82.8998 302.621 977.994
-82.8996 302.619 977.994
-82.8993 302.617 977.994
-82.899 302.615 977.994
-82.8988 302.613 977.994
-75.6383 242.952 979.965
-75.4862 243.32 978.994
-75.4883 243.337 978.994
-75.476 243.241 978.994
-75.4757 243.239 978.994
-75.4755 243.237 978.994
-83.1259 302.782 978.994
-83.2906 302.794 979.789
-83.3104 302.843 979.854
-83.3204 302.867 979.888
-83.3385 302.978 979.907
-83.3305 302.89 979.923
-75.6429 242.941 979.994
-75.6435 242.947 979.994
-75.6386 242.909 979.994
-75.6385 242.908 979.994
-75.6385 242.907 979.994
-75.6384 242.906 979.994
-83.3535 302.955 979.994
-83.3532 302.953 979.994
-83.3529 302.951 979.994
-83.3527 302.949 979.994
-83.3524 302.947 979.994
-75.7321 242.038 980.994
-75.7321 242.038 980.994
-75.7321 242.038 980.994
-75.7321 242.038 980.994
-75.7321 242.038 980.994
-83.5835 303.148 980.994
-83.5829 303.143 980.994
-83.759 303.221 981.803
-83.7705 303.224 981.857
-83.7768 303.224 981.887
-83.7807 303.224 981.907
-75.7322 242.038 980.994
-75.7322 242.038 980.994
-75.9268 240.52 982.892
-75.9215 240.544 982.851
-75.8149 241.084 981.994
-75.8144 241.08 981.994
-83.8014 303.245 981.994
-83.801 303.243 981.994
-83.8008 303.24 981.994
-83.9149 302.533 982.993
-83.915 302.533 982.993
-83.915 302.532 982.993
-75.9397 240.457 982.994
-75.9395 240.455 982.994
-75.9392 240.453 982.994
-75.939 240.452 982.994
-75.9388 240.45 982.994
-83.9151 302.532 982.994
-83.9151 302.532 982.994
-83.9151 302.532 982.994
-83.9151 302.532 982.994
-83.9151 302.532 982.994
-76.278 240.086 984.873
-76.2716 240.077 984.848
-76.2621 240.065 984.809
-76.0715 239.884 983.994
-76.0709 239.88 983.994
-76.0704 239.875 983.994
-83.9163 302.526 983.004
-83.9155 302.53 982.997
-83.9153 302.531 982.996
-83.9153 302.531 982.995
-83.9152 302.531 982.995
-83.9152 302.531 982.995
-76.5158 240.288 985.906
-76.5113 240.281 985.887
-76.5044 240.273 985.859
-76.3048 240.102 984.994
-76.3044 240.099 984.994
-76.304 240.095 984.994
-84.4109 303.194 984.994
-84.4104 303.191 984.994
-84.3789 302.945 984.994
-84.5888 303.183 985.867
-84.5976 303.212 985.892
-76.5362 240.305 985.994
-76.5359 240.302 985.994
-76.5355 240.3 985.994
-76.5352 240.297 985.994
-76.5349 240.295 985.994
-76.5346 240.292 985.994
-84.6368 303.354 985.994
-84.6365 303.352 985.994
-84.7528 302.842 986.88
-84.7607 302.859 986.907
-84.7654 302.87 986.924
-76.5643 238.925 986.994
-76.5684 238.957 986.994
-76.5752 239.01 986.994
-76.5882 239.111 986.994
-76.5426 238.756 986.994
-84.7872 302.926 986.994
-84.787 302.925 986.994
-84.7867 302.923 986.994
-84.9228 302.461 987.945
-84.9254 302.467 987.955
-76.9125 238.539 988.931
-76.9112 238.553 988.916
-76.9092 238.577 988.891
-76.6973 238.362 987.994
-76.6969 238.359 987.994
-84.9376 302.499 987.994
-84.9374 302.498 987.994
-84.9373 302.497 987.994
-84.9372 302.496 987.994
-84.937 302.495 987.994
-77.1351 238.595 989.98
-77.1348 238.598 989.977
-76.9167 238.471 988.994
-76.9165 238.47 988.994
-76.9163 238.468 988.994
-85.1507 302.559 988.994
-85.1501 302.554 988.994
-85.3081 302.596 989.737
-85.3222 302.597 989.806
-85.3302 302.595 989.846
-85.3353 302.594 989.872
-77.138 238.595 989.994
-77.136 238.58 989.994
-77.136 238.58 989.994
-77.136 238.58 989.994
-77.1359 238.579 989.994
-85.3638 302.619 989.994
-85.3633 302.616 989.994
-85.3629 302.612 989.994
-85.502 302.299 990.867
-85.5059 302.287 990.894
-85.5084 302.278 990.911
-77.1399 238.591 990.006
-77.4465 238.003 991.867
-77.4406 238.011 991.834
-77.4306 238.026 991.775
-77.3021 238.275 990.994
-77.3016 238.27 990.994
-85.5231 302.261 990.994
-85.5228 302.259 990.994
-85.5225 302.257 990.994
-85.6699 301.911 991.928
-85.6719 301.904 991.942
-77.687 238.122 992.964
-77.6854 238.12 992.958
-77.683 238.117 992.947
-77.6787 238.113 992.929
-77.4661 237.952 991.994
-77.4657 237.949 991.994
-85.6808 301.89 991.994
-85.6807 301.889 991.994
-85.6805 301.888 991.994
-85.6803 301.887 991.994
-85.6802 301.885 991.994
-77.6937 238.126 992.994
-77.6936 238.125 992.994
-77.6935 238.124 992.994
-77.6934 238.123 992.994
-77.6933 238.122 992.994
-85.8959 301.966 992.994
-85.8954 301.962 992.994
-86.0839 302.052 993.856
-86.0922 302.054 993.895
-86.0968 302.055 993.917
-86.0996 302.054 993.931
-78.0776 238.075 994.895
-78.0738 238.078 994.875
-78.0683 238.084 994.844
-77.9266 238.34 993.994
-77.9262 238.337 993.994
-77.9257 238.333 993.994
-86.1147 302.07 993.994
-86.1144 302.069 993.994
-86.1142 302.067 993.994
-86.114 302.065 993.994
-86.1137 302.063 993.994
-78.2374 237.721 995.895
-78.233 237.727 995.87
-78.0928 238.035 994.994
-78.0924 238.033 994.994
-78.092 238.03 994.994
-86.4243 302.882 994.994
-86.508 302.319 995.754
-86.5296 302.372 995.826
-86.5411 302.399 995.865
-86.5481 302.415 995.889
-78.4672 237.795 996.968
-78.4656 237.793 996.961
-78.4627 237.791 996.948
-78.2522 237.678 995.994
-78.2519 237.676 995.994
-86.5813 302.506 995.994
-86.5471 302.239 995.994
-86.7681 302.462 996.931
-86.7735 302.48 996.946
-86.7767 302.49 996.956
-78.4729 237.798 996.994
-78.4728 237.797 996.994
-78.4728 237.796 996.994
-78.4727 237.796 996.994
-78.4726 237.795 996.994
-86.7908 302.538 996.994
-86.779 302.446 996.994
-86.7823 302.472 996.994
-86.7841 302.486 996.994
-86.7851 302.494 996.994
-78.8417 237.645 998.885
-78.8376 237.649 998.863
-78.8316 237.657 998.829
-78.6946 237.925 997.994
-78.6941 237.921 997.994
-78.6936 237.917 997.994
-87.0001 302.569 997.994
-86.9996 302.565 997.994
-87.0905 302.033 998.77
-87.106 302.07 998.822
-87.1155 302.092 998.854
-78.9966 237.237 999.895
-78.9932 237.242 999.875
-78.9881 237.252 999.845
-78.8582 237.6 998.994
-78.8578 237.596 998.994
-78.8574 237.593 998.994
-87.1604 302.218 998.994
-87.1599 302.215 998.994
-87.1594 302.211 998.994
-87.1589 302.207 998.994
-87.2709 301.686 999.865
-79.2142 237.213 1000.97
-79.2132 237.213 1000.96
-79.2116 237.212 1000.96
-79.2088 237.211 1000.94
-79.0101 237.184 999.994
-79.0097 237.181 999.994
-87.311 301.792 999.994
-87.3106 301.789 999.994
-87.487 301.705 1000.91
-87.4915 301.702 1000.93
-87.4879 301.648 1000.95
-79.2184 237.213 1000.99
-79.2183 237.213 1000.99
-79.2183 237.212 1000.99
-79.2182 237.211 1000.99
-79.2181 237.211 1000.99
-87.5037 301.7 1000.99
-87.5036 301.699 1000.99
-87.5034 301.698 1000.99
-87.5033 301.697 1000.99
-87.5031 301.696 1000.99
-79.5999 237.13 1002.9
-79.5956 237.133 1002.88
-79.4425 237.359 1001.99
-79.4422 237.357 1001.99
-79.4418 237.354 1001.99
-87.7073 301.687 1001.99
-87.7069 301.683 1001.99
-87.7065 301.68 1001.99
-87.706 301.677 1001.99
-87.8555 301.426 1002.87
-79.7685 236.831 1003.91
-79.7648 236.835 1003.89
-79.6148 237.102 1002.99
-79.6145 237.1 1002.99
-79.6142 237.097 1002.99
-87.8766 301.406 1002.99
-87.8762 301.403 1002.99
-87.8759 301.4 1002.99
-87.8755 301.397 1002.99
-87.8751 301.394 1002.99
-79.9908 236.861 1004.97
-79.9897 236.861 1004.97
-79.9877 236.86 1004.96
-79.7814 236.8 1003.99
-79.7811 236.798 1003.99
-88.0422 301.097 1003.99
-88.0419 301.094 1003.99
-88.227 301.07 1004.91
-88.2315 301.069 1004.93
-88.234 301.067 1004.94
-80.0739 235.936 1005.96
-79.9947 236.862 1004.99
-79.9946 236.862 1004.99
-79.9946 236.861 1004.99
-80.0093 235.842 1005.7
-88.2443 301.071 1004.99
-88.2441 301.07 1004.99
-88.2439 301.069 1004.99
-88.2438 301.067 1004.99
-88.2437 301.066 1004.99
-80.2556 235.745 1006.96
-80.2492 235.711 1006.95
-80.0765 235.901 1005.99
-80.0764 235.9 1005.99
-80.0763 235.899 1005.99
-88.4593 301.146 1005.99
-88.4587 301.142 1005.99
-88.4582 301.138 1005.99
-88.4576 301.133 1005.99
-88.4571 301.129 1005.99
-88.6122 300.951 1006.86
-80.2566 235.704 1006.99
-80.2565 235.703 1006.99
-80.2564 235.702 1006.99
-80.2563 235.701 1006.99
-80.2562 235.7 1006.99
-88.6389 300.946 1006.99
-88.6383 300.941 1006.99
-88.6378 300.937 1006.99
-88.6372 300.933 1006.99
-88.6367 300.929 1006.99
-88.6362 300.925 1006.99
-80.6032 235.237 1008.97
-80.6021 235.237 1008.97
-80.6003 235.237 1008.96
-80.4151 235.339 1007.99
-80.4148 235.337 1007.99
-88.8037 300.63 1007.99
-88.803 300.625 1007.99
-88.8024 300.62 1007.99
-88.9497 300.479 1008.8
-88.9567 300.468 1008.84
-88.9611 300.459 1008.86
-80.607 235.234 1008.99
-80.6069 235.234 1008.99
-80.6069 235.233 1008.99
-80.6068 235.233 1008.99
-80.6067 235.232 1008.99
-88.9868 300.457 1008.99
-88.9863 300.453 1008.99
-89.1558 300.363 1009.87
-89.162 300.358 1009.91
-89.1654 300.355 1009.92
-89.1675 300.352 1009.94
-80.979 235.064 1010.91
-80.9748 235.067 1010.89
-80.9678 235.073 1010.85
-80.8161 235.264 1009.99
-80.8157 235.261 1009.99
-89.179 300.355 1009.99
-89.1788 300.353 1009.99
-89.1786 300.352 1009.99
-89.3434 300.05 1010.98
-89.3437 300.049 1010.98
-81.1443 234.689 1011.95
-81.1424 234.692 1011.94
-81.1392 234.698 1011.92
-80.9925 235.039 1010.99
-80.9923 235.037 1010.99
-89.3449 300.048 1010.99
-89.3449 300.048 1010.99
-89.3449 300.047 1010.99
-89.3448 300.047 1010.99
-89.3448 300.047 1010.99
-81.151 234.673 1011.99
-81.1508 234.672 1011.99
-81.1507 234.671 1011.99
-81.1505 234.67 1011.99
-81.1504 234.669 1011.99
-89.4957 299.623 1011.99
-89.4951 299.619 1011.99
-89.6503 299.521 1012.81
-89.6596 299.512 1012.86
-89.6648 299.506 1012.89
-89.668 299.502 1012.9
-81.5622 234.796 1013.92
-81.5583 234.792 1013.9
-81.5524 234.786 1013.87
-81.5421 234.778 1013.83
-81.3561 234.672 1012.99
-81.3555 234.667 1012.99
-89.6859 299.505 1012.99
-89.6856 299.503 1012.99
-89.885 299.493 1013.97
-89.8863 299.493 1013.97
-89.887 299.493 1013.98
-81.752 234.607 1014.96
-81.7504 234.608 1014.95
-81.7476 234.61 1014.93
-81.5774 234.796 1013.99
-81.5771 234.794 1013.99
-89.8898 299.494 1013.99
-89.8898 299.494 1013.99
-89.8897 299.493 1013.99
-89.8897 299.493 1013.99
-89.8896 299.493 1013.99
-81.9065 234.162 1015.99
-81.9065 234.162 1015.99
-81.9064 234.162 1015.99
-81.7574 234.598 1014.99
-81.7573 234.598 1014.99
-90.3094 299.794 1015.85
-90.3269 299.835 1015.91
-90.3341 299.851 1015.93
-90.3379 299.859 1015.94
-90.3403 299.864 1015.95
-81.9066 234.162 1015.99
-81.9066 234.162 1015.99
-81.9066 234.162 1015.99
-81.9066 234.162 1015.99
-81.9066 234.162 1015.99
-90.3518 299.893 1015.99
-90.3516 299.892 1015.99
-90.3515 299.891 1015.99
-90.5389 299.782 1016.97
-81.9067 234.162 1015.99
-81.9068 234.162 1015.99
-81.9068 234.161 1015.99
-81.9069 234.161 1015.99
-82.1036 234.096 1016.99
-82.103 234.092 1016.99
-90.5427 299.781 1016.99
-90.5427 299.781 1016.99
-90.5426 299.78 1016.99
-90.5426 299.78 1016.99
-90.5425 299.779 1016.99
-82.5093 234.201 1018.9
-82.5054 234.201 1018.88
-82.4996 234.203 1018.85
-82.4898 234.208 1018.8
-82.3393 234.333 1017.99
-82.3388 234.329 1017.99
-90.7739 299.982 1017.99
-90.7733 299.977 1017.99
-90.7726 299.972 1017.99
-90.5482 299.785 1017.01
-90.5468 299.784 1017.01
-90.5459 299.782 1017
-82.6561 233.651 1019.96
-82.6549 233.655 1019.95
-82.6527 233.662 1019.94
-82.5244 234.175 1018.99
-82.5241 234.173 1018.99
-90.9483 299.741 1018.99
-90.9478 299.737 1018.99
-90.9473 299.733 1018.99
-90.9468 299.729 1018.99
-91.0569 299.113 1019.91
-82.6602 233.634 1019.99
-82.6601 233.634 1019.99
-82.66 233.633 1019.99
-82.66 233.632 1019.99
-82.6599 233.631 1019.99
-91.0673 299.069 1019.99
-91.0671 299.067 1019.99
-91.0668 299.065 1019.99
-91.0665 299.063 1019.99
-91.0563 298.983 1019.99
-83.0475 233.536 1021.94
-83.0447 233.533 1021.93
-83.0405 233.529 1021.91
-83.0331 233.523 1021.88
-82.8369 233.411 1020.99
-82.8364 233.407 1020.99
-91.2255 298.702 1020.99
-91.2248 298.697 1020.99
-91.3831 298.67 1021.78
-91.3947 298.665 1021.84
-91.4011 298.66 1021.87
-83.0589 233.54 1021.99
-83.0587 233.539 1021.99
-83.0585 233.537 1021.99
-83.0583 233.536 1021.99
-83.0581 233.534 1021.99
-91.4267 298.67 1021.99
-91.4263 298.667 1021.99
-91.5947 298.488 1022.92
-91.598 298.484 1022.94
-91.5998 298.481 1022.95
-83.41 233.242 1023.89
-83.4058 233.246 1023.86
-83.3995 233.252 1023.83
-83.3889 233.266 1023.77
-83.2573 233.487 1022.99
-83.2567 233.482 1022.99
-91.6074 298.478 1022.99
-91.6072 298.477 1022.99
-91.6071 298.476 1022.99
-91.607 298.475 1022.99
-91.6068 298.474 1022.99
-83.6083 233.129 1024.92
-83.6045 233.129 1024.9
-83.5981 233.129 1024.87
-83.4257 233.199 1023.99
-83.4253 233.196 1023.99
-91.7608 298.074 1023.99
-91.7602 298.069 1023.99
-91.7596 298.064 1023.99
-91.6155 298.454 1023.04
-91.6134 298.458 1023.03
-91.6121 298.46 1023.02
-83.8502 233.337 1025.97
-83.8489 233.335 1025.97
-83.6209 233.12 1024.99
-83.6207 233.118 1024.99
-83.6204 233.116 1024.99
-91.9423 297.888 1024.99
-91.9418 297.884 1024.99
-92.1334 298 1025.85
-92.1414 298.003 1025.89
-92.146 298.004 1025.91
-83.8547 233.341 1025.99
-83.8546 233.341 1025.99
-83.8546 233.34 1025.99
-83.8545 233.34 1025.99
-83.8544 233.339 1025.99
-92.1651 298.024 1025.99
-92.1649 298.022 1025.99
-92.1646 298.02 1025.99
-92.3422 297.879 1026.94
-92.3439 297.876 1026.95
-84.1743 232.813 1027.88
-84.1706 232.822 1027.85
-84.1652 232.839 1027.82
-84.1562 232.869 1027.75
-84.0523 233.281 1026.99
-84.0516 233.276 1026.99
-92.3514 297.875 1026.99
-92.3512 297.874 1026.99
-92.3511 297.873 1026.99
-92.351 297.872 1026.99
-92.3508 297.871 1026.99
-84.3388 232.412 1028.93
-84.3364 232.415 1028.92
-84.3329 232.42 1028.9
-84.3269 232.43 1028.86
-84.1877 232.737 1027.99
-84.1873 232.733 1027.99
-92.4764 297.25 1027.99
-92.4757 297.245 1027.99
-92.3614 297.824 1027.07
-92.3581 297.839 1027.05
-92.3563 297.846 1027.03
-92.3551 297.85 1027.02
-84.3482 232.388 1028.99
-84.348 232.386 1028.99
-84.3477 232.384 1028.99
-84.3475 232.382 1028.99
-84.3473 232.38 1028.99
-92.6497 297.001 1028.99
-92.8232 297.382 1029.6
-92.8643 297.503 1029.72
-92.8855 297.565 1029.79
-92.8983 297.6 1029.83
-84.7384 232.353 1030.91
-84.7347 232.352 1030.89
-84.7292 232.351 1030.87
-84.7196 232.352 1030.82
-84.557 232.414 1029.99
-84.5564 232.409 1029.99
-92.8773 297.174 1029.99
-92.9062 297.399 1029.99
-92.9192 297.5 1029.99
-92.9263 297.555 1029.99
-92.9307 297.589 1029.99
-84.9062 232.041 1031.92
-84.9031 232.045 1031.91
-84.8981 232.052 1031.88
-84.7523 232.336 1030.99
-84.752 232.334 1030.99
-92.9951 296.492 1030.99
-93.1204 296.73 1031.45
-93.1664 296.848 1031.6
-93.192 296.911 1031.69
-93.2081 296.949 1031.74
-93.2191 296.973 1031.78
-85.0993 231.868 1032.97
-85.0984 231.868 1032.97
-85.0968 231.869 1032.96
-84.9163 232.014 1031.99
-84.9161 232.013 1031.99
-93.163 296.201 1031.99
-93.3076 296.48 1032.52
-93.3513 296.603 1032.66
-93.3751 296.668 1032.73
-93.39 296.707 1032.78
-85.1025 231.865 1032.99
-85.1024 231.865 1032.99
-85.1024 231.864 1032.99
-85.1023 231.864 1032.99
-85.1023 231.863 1032.99
-93.3571 296.113 1032.99
-93.5703 296.63 1033.7
-93.6032 296.741 1033.8
-93.62 296.797 1033.84
-93.6302 296.83 1033.87
-85.3486 232.183 1033.99
-85.3483 232.18 1033.99
-85.3479 232.177 1033.99
-85.3476 232.174 1033.99
-85.3472 232.172 1033.99
-93.6199 296.561 1033.99
-93.8494 296.83 1034.94
-93.8549 296.847 1034.95
-93.8577 296.856 1034.96
-93.8594 296.861 1034.97
-85.6976 231.872 1035.88
-85.6939 231.88 1035.86
-85.6883 231.895 1035.82
-85.6787 231.923 1035.76
-85.5687 232.297 1034.99
-85.568 232.292 1034.99
-93.8672 296.887 1034.99
-93.8671 296.886 1034.99
-93.8623 296.849 1034.99
-93.8633 296.856 1034.99
-85.8634 231.459 1036.95
-85.8618 231.461 1036.94
-85.8595 231.465 1036.93
-85.8555 231.472 1036.9
-85.7109 231.806 1035.99
-85.7105 231.802 1035.99
-93.9884 296.232 1035.99
-93.9879 296.228 1035.99
-93.8728 296.856 1035.04
-94.0961 295.626 1036.89
-94.1011 295.636 1036.91
-85.8696 231.443 1036.99
-85.8694 231.441 1036.99
-85.8693 231.44 1036.99
-85.8691 231.439 1036.99
-85.8689 231.437 1036.99
-94.1251 295.698 1036.99
-94.1248 295.695 1036.99
-94.3251 295.666 1037.98
-94.3259 295.665 1037.99
-86.2916 231.642 1038.92
-86.2876 231.639 1038.9
-86.2815 231.635 1038.88
-86.271 231.63 1038.83
-86.0961 231.592 1038
-86.0955 231.587 1038
-94.3284 295.666 1038
-94.3284 295.666 1038
-94.3284 295.665 1038
-94.3283 295.665 1038
-86.4425 231.165 1039.95
-86.4409 231.168 1039.94
-86.4386 231.174 1039.93
-86.4348 231.185 1039.9
-86.307 231.635 1039
-86.3067 231.632 1039
-94.5173 295.538 1039
-94.5168 295.534 1039
-94.5163 295.53 1039
-94.3308 295.664 1038.01
-94.3302 295.664 1038.01
-86.6013 230.735 1041
-86.6012 230.735 1041
-86.6009 230.736 1040.99
-86.4482 231.135 1040
-86.448 231.134 1040
-94.6477 294.954 1040
-94.6473 294.951 1040
-94.6469 294.948 1040
-94.6465 294.945 1040
-94.6461 294.942 1040
-86.6019 230.733 1041
-86.6019 230.733 1041
-86.6019 230.733 1041
-86.6019 230.733 1041
-86.6019 230.733 1041
-94.7862 294.434 1041
-94.786 294.433 1041
-94.7858 294.431 1041
-94.7856 294.429 1041
-94.7854 294.427 1041
-86.8374 230.968 1042
-86.8372 230.966 1042
-86.8369 230.964 1042
-86.8367 230.963 1042
-86.8365 230.961 1042
-94.8697 294.384 1041.44
-95.1857 294.943 1042.63
-95.2244 295.057 1042.74
-95.2444 295.114 1042.81
-95.2565 295.147 1042.84
-87.2174 230.785 1043.96
-87.2159 230.786 1043.96
-87.2137 230.788 1043.94
-87.2099 230.794 1043.92
-87.0555 231.067 1043
-87.0551 231.064 1043
-95.3112 295.323 1043
-95.3105 295.319 1043
-95.4139 294.719 1043.88
-95.4219 294.737 1043.91
-95.4268 294.747 1043.92
-87.2231 230.773 1044
-87.2229 230.772 1044
-87.2228 230.771 1044
-87.2226 230.769 1044
-87.2225 230.768 1044
-95.4506 294.81 1044
-95.4503 294.808 1044
-95.5947 294.345 1044.99
-95.5952 294.346 1044.99
-87.6205 230.82 1045.91
-87.3983 230.539 1045
-87.3978 230.535 1045
-87.3972 230.53 1045
-87.3967 230.526 1045
-87.3961 230.521 1045
-95.5969 294.351 1045
-95.5969 294.351 1045
-95.5959 294.343 1045
-95.5961 294.344 1045
-88.0316 230.681 1047.99
-87.6431 230.846 1046
-87.6427 230.843 1046
-87.6423 230.84 1046
-87.6419 230.836 1046
-87.6415 230.833 1046
-95.8283 294.554 1046
-95.8277 294.549 1046
-96.0035 294.68 1046.77
-96.0004 294.52 1046.86
-96.0097 294.551 1046.88
-88.0322 230.682 1048
-88.0321 230.682 1048
-88.032 230.682 1048
-88.0318 230.683 1047.99
-87.8838 231.121 1047
-87.8836 231.119 1047
-96.056 294.728 1047
-96.0555 294.724 1047
-96.055 294.72 1047
-96.0545 294.716 1047
-96.1644 294.076 1047.94
-88.0322 230.677 1048
-88.0321 230.676 1048
-88.0326 230.681 1048
-88.0326 230.681 1048
-88.0326 230.68 1048
-88.0326 230.68 1048
-96.1838 294.124 1048
-96.1835 294.122 1048
-96.1833 294.12 1048
-96.183 294.118 1048
-96.1827 294.116 1048
-88.3976 229.056 1050.79
-88.3882 229.051 1050.75
-88.3743 229.046 1050.69
-88.3828 230.28 1049.96
-88.3789 230.278 1049.94
-88.1828 230.251 1049
-88.1823 230.247 1049
-96.3119 293.523 1049
-96.3119 293.522 1049
-96.3118 293.522 1049
-96.3118 293.522 1049
-96.3117 293.521 1049
-88.5902 228.737 1051.93
-88.4105 229.049 1050.86
-88.4015 229.044 1050.82
-88.3918 230.28 1050
-88.3917 230.279 1050
-88.3916 230.278 1050
-96.4849 293.271 1050
-96.4844 293.267 1050
-96.4839 293.263 1050
-96.3149 293.518 1049.02
-96.7562 294.066 1050.82
-88.5978 228.737 1051.97
-88.5966 228.738 1051.96
-88.5946 228.74 1051.95
-88.5912 228.746 1051.93
-88.5836 228.759 1051.89
-88.49 229.446 1051
-96.8398 293.441 1051.62
-96.8852 293.545 1051.78
-96.9039 293.586 1051.84
-96.914 293.607 1051.88
-96.9202 293.619 1051.9
-88.6028 228.725 1052
-88.6027 228.724 1052
-88.6025 228.723 1052
-88.6024 228.722 1052
-88.6023 228.721 1052
-96.9505 293.698 1052
-97.0678 293.092 1052.95
-97.072 293.101 1052.96
-97.0742 293.106 1052.97
-88.9806 228.543 1053.95
-88.9781 228.54 1053.94
-88.9742 228.536 1053.93
-88.9675 228.531 1053.9
-88.7672 228.407 1053
-88.7666 228.402 1053
-97.0824 293.126 1053
-97.0755 293.073 1053
-97.0772 293.086 1053
-97.0782 293.094 1053
-88.9906 228.547 1054
-88.9904 228.546 1054
-88.9902 228.544 1054
-88.99 228.543 1054
-88.9898 228.541 1054
-97.2728 293.01 1054
-97.2722 293.005 1054
-97.4436 292.93 1054.88
-97.4414 292.837 1054.93
-97.4458 292.85 1054.94
-89.3778 228.515 1055.91
-89.3738 228.516 1055.89
-89.3679 228.52 1055.85
-89.358 228.53 1055.8
-89.2179 228.718 1055
-89.2173 228.713 1055
-97.4671 292.924 1055
-97.4669 292.922 1055
-97.4666 292.92 1055
-97.6171 292.523 1055.98
-89.3941 228.491 1056
-89.3937 228.488 1056
-89.3933 228.485 1056
-89.3929 228.482 1056
-89.3924 228.478 1056
-89.392 228.475 1056
-97.6232 292.541 1056
-97.6232 292.541 1056
-97.6231 292.54 1056
-97.6202 292.517 1056
-89.7396 228.222 1057.85
-89.7319 228.217 1057.82
-89.7203 228.211 1057.76
-89.759 228.512 1057.76
-89.755 228.624 1057.67
-89.667 229.017 1057
-97.7752 292.126 1057
-97.7745 292.12 1057
-97.6291 292.525 1056.04
-97.6271 292.529 1056.03
-97.9156 291.755 1057.92
-89.9673 228.251 1058.94
-89.9642 228.249 1058.93
-89.9594 228.246 1058.91
-89.9747 228.364 1058.91
-89.9729 228.408 1058.87
-89.8346 228.723 1058
-97.945 291.849 1058
-97.9446 291.846 1058
-98.1174 291.593 1059
-98.1174 291.593 1059
-98.1174 291.593 1059
-90.13 227.86 1059.98
-90.1292 227.862 1059.97
-90.128 227.864 1059.97
-89.9923 228.353 1059
-89.9785 228.245 1059
-89.9783 228.243 1059
-98.1175 291.593 1059
-98.1175 291.593 1059
-98.1175 291.593 1059
-98.1175 291.593 1059
-98.1175 291.593 1059
-90.1332 227.851 1060
-90.1331 227.85 1060
-90.133 227.849 1060
-90.1329 227.849 1060
-90.1328 227.848 1060
