-109.516055 155.619730 1282.610000
-109.839175 157.732980 1281.610000
-109.292482 155.139393 1280.610000
-109.640113 157.437712 1279.610000
-109.052851 154.640523 1278.610000
-109.336141 156.637929 1277.610000
-108.797456 154.122390 1276.610000
-109.099940 156.275146 1275.610000
-108.526595 153.584296 1274.610000
-108.662597 154.861554 1273.610000
-108.240379 153.025425 1272.610000
-108.450918 154.761035 1271.610000
-107.939016 152.445055 1270.610000
-107.993546 153.340744 1269.610000
-107.622731 151.841719 1268.610000
-107.763959 153.259984 1267.610000
-107.335708 151.454478 1266.610000
-107.315293 151.983365 1265.610000
-107.052370 151.143705 1264.610000
-107.076525 151.963715 1263.610000
-106.762836 150.853504 1262.610000
-106.627666 150.779659 1261.610000
-106.433888 150.383430 1260.610000
-106.320460 150.468261 1259.610000
-106.159417 150.292154 1258.610000
-105.986113 150.050506 1257.610000
-105.795696 149.719775 1256.610000
-105.658852 149.722507 1255.610000
-105.495620 149.580881 1254.610000
-105.315584 149.349618 1253.610000
-105.054308 148.626986 1252.610000
-104.941832 148.829848 1251.610000
-104.820098 148.996301 1250.610000
-104.636736 148.790156 1249.610000
-104.367618 148.050879 1248.610000
-104.159598 147.703039 1247.610000
-104.102819 148.335624 1246.610000
-103.895166 148.014231 1245.610000
-103.714881 147.883202 1244.610000
-103.535535 147.764115 1243.610000
-103.393284 147.905605 1242.610000
-103.182425 147.604019 1241.610000
-102.849773 146.491291 1240.610000
-102.676410 146.448356 1239.610000
-102.621240 147.225845 1238.610000
-102.389738 146.807913 1237.610000
-102.089856 145.929694 1236.610000
-101.824849 145.300638 1235.610000
-101.650111 145.300546 1234.610000
-101.487097 145.395972 1233.610000
-101.332836 145.566333 1232.610000
-101.020159 144.600237 1231.610000
-100.957697 145.456410 1230.610000
-100.760771 145.347920 1229.610000
-100.506251 144.835734 1228.610000
-100.215736 144.027584 1227.610000
-100.033495 144.048225 1226.610000
-99.839183 143.986582 1225.610000
-99.655753 144.014581 1224.610000
-99.448655 143.873265 1223.610000
-99.179570 143.242292 1222.610000
-98.968961 143.076890 1221.610000
-98.769162 143.009060 1220.610000
-98.557619 142.849386 1219.610000
-98.385376 143.021238 1218.610000
-98.195648 143.062739 1217.610000
-98.003777 143.095470 1216.610000
-97.797537 143.012775 1215.610000
-97.589894 142.925122 1214.610000
-97.347824 142.535722 1213.610000
-97.123242 142.301243 1212.610000
-96.916223 142.228740 1211.610000
-96.720998 142.279696 1210.610000
-96.534150 142.409811 1209.610000
-96.327505 142.370222 1208.610000
-96.072831 141.870228 1207.610000
-95.846574 141.640542 1206.610000
-95.584966 141.063264 1205.610000
-95.359500 140.845769 1204.610000
-95.113911 140.400342 1203.610000
-94.912804 140.423347 1202.610000
-94.729794 140.658930 1201.610000
-94.606937 141.529537 1200.610000
-94.390885 141.423180 1199.610000
-94.177880 141.352678 1198.610000
-93.935513 140.955762 1197.610000
-93.742499 141.121464 1196.610000
-93.538129 141.166420 1195.610000
-93.343466 141.330938 1194.610000
-93.122567 141.186702 1193.610000
-92.927017 141.350661 1192.610000
-92.673329 140.800417 1191.610000
-92.496958 141.230788 1190.610000
-92.262755 140.929367 1189.610000
-92.076064 141.235019 1188.610000
-91.876490 141.386810 1187.610000
-91.705697 141.936605 1186.610000
-91.492651 141.917697 1185.610000
-91.161420 140.171850 1184.610000
-90.955360 140.219739 1183.610000
-90.745987 140.223285 1182.610000
-90.548120 140.405942 1181.610000
-90.342736 140.477279 1180.610000
-90.118430 140.244613 1179.610000
-89.900461 140.094545 1178.610000
-89.695770 140.172535 1177.610000
-89.472867 139.920878 1176.610000
-89.222403 139.154094 1175.610000
-89.000436 138.879568 1174.610000
-88.800038 139.004981 1173.610000
-88.607276 139.296179 1172.610000
-88.399762 139.305768 1171.610000
-88.183176 139.080674 1170.610000
-87.968122 138.859460 1169.610000
-87.763594 138.859277 1168.610000
-87.559383 138.879991 1167.610000
-87.343425 138.602006 1166.610000
-87.140634 138.653868 1165.610000
-86.934264 138.554620 1164.610000
-86.731049 138.530958 1163.610000
-86.522881 138.335162 1162.610000
-86.304792 137.828550 1161.610000
-86.105304 137.850818 1160.610000
-85.907080 137.889355 1159.610000
-85.699870 137.575409 1158.610000
-85.485219 136.952461 1157.610000
-85.286523 136.852632 1156.610000
-85.080575 136.423162 1155.610000
-84.884531 136.298663 1154.610000
-84.690344 136.242470 1153.610000
-84.497805 136.233492 1152.610000
-84.304124 136.106949 1151.610000
-84.113909 136.139199 1150.610000
-83.926870 136.325035 1149.610000
-83.737461 136.307952 1148.610000
-83.548181 136.234237 1147.610000
-83.358875 136.006727 1146.610000
-83.174399 136.014214 1145.610000
-82.989284 135.740216 1144.610000
-82.800796 134.957659 1143.610000
-82.616022 134.484487 1142.610000
-82.436210 134.879627 1141.610000
-82.257484 134.945889 1140.610000
-82.079539 134.998885 1139.610000
-81.902881 134.486060 1138.610000
-81.727854 134.470039 1137.610000
-81.553658 134.552556 1136.610000
-81.380680 134.724065 1135.610000
-81.205809 135.052905 1134.610000
-81.036134 134.859017 1133.610000
-80.876825 133.669758 1132.610000
-80.698354 134.848736 1131.610000
-80.546869 133.689683 1130.610000
-80.378844 133.941074 1129.610000
-80.217172 133.841759 1128.610000
-80.061115 133.530084 1127.610000
-79.904583 133.343935 1126.610000
-79.747204 133.324414 1125.610000
-79.594050 133.149023 1124.610000
-79.439547 133.135412 1123.610000
-79.277599 133.460902 1122.610000
-79.112485 133.992408 1121.610000
-78.954639 134.334306 1120.610000
-78.802571 134.465881 1119.610000
-78.657517 134.343147 1118.610000
-78.523612 133.886756 1117.610000
-78.373272 134.130156 1116.610000
-78.245564 133.646363 1115.610000
-78.113401 133.376530 1114.610000
-77.974277 133.400870 1113.610000
-77.807945 134.259521 1112.610000
-77.654856 134.762678 1111.610000
-77.495119 135.459516 1110.610000
-77.347755 135.835467 1109.610000
-77.209497 135.961838 1108.610000
-77.079292 135.941327 1107.610000
-76.960422 135.640357 1106.610000
-76.841609 135.442981 1105.610000
-76.707802 135.644903 1104.610000
-76.587335 135.580718 1103.610000
-76.456165 135.781898 1102.610000
-76.341246 135.642312 1101.610000
-76.209505 135.920275 1100.610000
-76.085162 136.012364 1099.610000
-75.934577 136.763054 1098.610000
-75.809140 136.960607 1097.610000
-75.695602 136.965743 1096.610000
-75.577634 137.096591 1095.610000
-75.453419 137.359234 1094.610000
-75.335345 137.529465 1093.610000
-75.191120 138.222211 1092.610000
-75.089227 138.140276 1091.610000
-74.979218 138.218453 1090.610000
-74.883891 138.064251 1089.610000
-74.748801 138.639150 1088.610000
-74.584890 139.761624 1087.610000
-74.464038 140.118604 1086.610000
-74.390577 139.688777 1085.610000
-74.293653 139.693250 1084.610000
-74.205016 139.586529 1083.610000
-74.116298 139.508121 1082.610000
-74.008268 139.768706 1081.610000
-73.877160 140.426812 1080.610000
-73.737431 141.241509 1079.610000
-73.608754 141.865865 1078.610000
-73.521389 141.862540 1077.610000
-73.423968 142.046726 1076.610000
-73.334557 142.126052 1075.610000
-73.253580 142.087503 1074.610000
-73.192388 141.804550 1073.610000
-73.106890 141.905040 1072.610000
-73.012368 142.141534 1071.610000
-72.883163 142.897842 1070.610000
-72.767587 143.477990 1069.610000
-72.680185 143.678349 1068.610000
-72.603708 143.738646 1067.610000
-72.532057 143.743455 1066.610000
-72.448788 143.930301 1065.610000
-72.363595 144.165675 1064.610000
-72.315123 143.913761 1063.610000
-72.257149 143.808380 1062.610000
-72.211531 143.554287 1061.610000
-72.159623 143.398886 1060.610000
-72.098872 143.397946 1059.610000
-72.046377 143.299834 1058.610000
-71.997895 143.199993 1057.610000
-71.946572 143.146599 1056.610000
-71.875212 143.368195 1055.610000
-71.832455 143.228779 1054.610000
-71.741700 143.743423 1053.610000
-71.688427 143.776054 1052.610000
-71.629195 143.907681 1051.610000
-71.529957 144.577280 1050.610000
-71.366318 146.075526 1049.610000
-71.363299 145.528140 1048.610000
-71.319171 145.529293 1047.610000
-71.277019 145.522256 1046.610000
-71.148817 146.620480 1045.610000
-71.074872 147.044822 1044.610000
-70.987913 147.650739 1043.610000
-70.953176 147.617501 1042.610000
-70.919071 147.593366 1041.610000
-70.878641 147.664846 1040.610000
-70.826085 147.901763 1039.610000
-70.756855 148.361404 1038.610000
-70.690966 148.793201 1037.610000
-70.636026 149.110397 1036.610000
-70.593713 149.277091 1035.610000
-70.539391 149.618764 1034.610000
-70.480548 150.019325 1033.610000
-70.430844 150.341832 1032.610000
-70.376552 150.719233 1031.610000
-70.351598 150.761727 1030.610000
-70.339869 150.661547 1029.610000
-70.339421 150.426088 1028.610000
-70.308931 150.575136 1027.610000
-70.219061 151.464513 1026.610000
-70.170976 151.862196 1025.610000
-70.137514 152.099454 1024.610000
-70.084213 152.590347 1023.610000
-70.045127 152.925281 1022.610000
-70.010609 153.233658 1021.610000
-69.952031 153.822245 1020.610000
-69.929803 153.995158 1019.610000
-69.882282 154.489048 1018.610000
-69.820403 155.182967 1017.610000
-69.803853 155.349005 1016.610000
-69.773201 155.684389 1015.610000
-69.748954 155.964545 1014.610000
-69.736945 156.109445 1013.610000
-69.709225 156.470176 1012.610000
-69.648521 157.220981 1011.610000
-69.639539 157.374706 1010.610000
-69.634690 157.493470 1009.610000
-69.627817 157.649150 1008.610000
-69.616437 157.878863 1007.610000
-69.576511 158.493159 1006.610000
-69.557793 158.845217 1005.610000
-69.536940 159.241495 1004.610000
-69.505816 159.779824 1003.610000
-69.516429 159.823858 1002.610000
-69.525206 159.906997 1001.610000
-69.518108 160.208039 1000.610000
-69.485751 160.814003 999.610000
-69.474031 161.202050 998.610000
-69.449858 161.742359 997.610000
-69.439555 162.132509 996.610000
-69.437363 162.436015 995.610000
-69.445942 162.628850 994.610000
-69.471466 162.630971 993.610000
-69.504389 162.552757 992.610000
-69.527243 162.611760 991.610000
-69.546791 162.729602 990.610000
-69.525052 163.384163 989.610000
-69.528367 163.735445 988.610000
-69.555089 163.813503 987.610000
-69.584778 163.864136 986.610000
-69.573091 164.455314 985.610000
-69.562571 165.050293 984.610000
-69.604245 164.999055 983.610000
-69.623490 165.241845 982.610000
-69.600447 166.040334 981.610000
-69.620933 166.307467 980.610000
-69.684280 166.043600 979.610000
-69.694084 166.473412 978.610000
-69.740056 166.457553 977.610000
-69.772723 166.624637 976.610000
-69.815153 166.690701 975.610000
-69.814281 167.326001 974.610000
-69.827288 167.795320 973.610000
-69.837529 168.317271 972.610000
-69.870546 168.566337 971.610000
-69.918619 168.629912 970.610000
-69.987122 168.446088 969.610000
-70.042826 168.441902 968.610000
-70.080556 168.703061 967.610000
-70.073410 169.567987 966.610000
-70.097139 170.012117 965.610000
-70.152863 170.058372 964.610000
-70.214755 170.037126 963.610000
-70.274068 170.066608 962.610000
-70.306022 170.503390 961.610000
-70.336596 170.974666 960.610000
-70.397410 171.030650 959.610000
-70.457132 171.116060 958.610000
-70.504251 171.394853 957.610000
-70.537066 171.900213 956.610000
-70.605741 171.907989 955.610000
-70.667983 172.022659 954.610000
-70.732965 172.111644 953.610000
-70.778557 172.491799 952.610000
-70.848062 172.551769 951.610000
-70.910380 172.736941 950.610000
-70.948040 173.300292 949.610000
-70.987456 173.833303 948.610000
-71.055971 173.962645 947.610000
-71.133720 173.967741 946.610000
-71.213091 173.959582 945.610000
-71.292423 173.963529 944.610000
-71.339375 174.478766 943.610000
-71.420202 174.484064 942.610000
-71.501562 174.489397 941.610000
-71.547127 175.065086 940.610000
-71.616214 175.292084 939.610000
-71.686402 175.515413 938.610000
-71.770048 175.526046 937.610000
-71.809918 176.261137 936.610000
-71.849579 177.010157 935.610000
-71.936611 176.996846 934.610000
-72.027807 176.922992 933.610000
-72.119899 176.837257 932.610000
-72.204871 176.878838 931.610000
-72.286663 176.967086 930.610000
-72.343815 177.501172 929.610000
-72.401940 178.040042 928.610000
-72.470243 178.389118 927.610000
-72.546305 178.618907 926.610000
-72.623590 178.835834 925.610000
-72.726175 178.578785 924.610000
-72.817170 178.539142 923.610000
-72.911039 178.459439 922.610000
-72.985175 178.741671 921.610000
-73.057020 179.068329 920.610000
-73.146081 179.079796 919.610000
-73.200754 179.740532 918.610000
-73.265659 180.210352 917.610000
-73.323005 180.824157 916.610000
-73.394571 181.184105 915.610000
-73.473177 181.382981 914.610000
-73.548870 181.644467 913.610000
-73.634740 181.682891 912.610000
-73.722050 181.702654 911.610000
-73.821110 181.493803 910.610000
-73.883675 182.016857 909.610000
-73.968069 182.085072 908.610000
-74.036583 182.464699 907.610000
-74.123642 182.429098 906.610000
-74.215824 182.255664 905.610000
-74.302203 182.221133 904.610000
-74.358499 182.849534 903.610000
-74.411050 183.563369 902.610000
-74.479318 183.903955 901.610000
-74.534620 184.528563 900.610000
-74.597307 184.977317 899.610000
-74.680172 184.947874 898.610000
-74.735357 185.557580 897.610000
-74.809171 185.700268 896.610000
-74.882336 185.828710 895.610000
-74.953648 185.951163 894.610000
-75.029488 185.965179 893.610000
-75.093158 186.318207 892.610000
-75.167468 186.325189 891.610000
-75.246410 186.190318 890.610000
-75.320537 186.148302 889.610000
-75.400755 185.906220 888.610000
-75.489589 185.369132 887.610000
-75.561096 185.274360 886.610000
-75.627740 185.276979 885.610000
-75.692964 185.279542 884.610000
-75.757235 185.269029 883.610000
-75.819706 185.271586 882.610000
-75.861569 185.816513 881.610000
-75.901573 186.379932 880.610000
-75.954087 186.547270 879.610000
-76.007379 186.652079 878.610000
-76.057354 186.808297 877.610000
-76.106588 186.940397 876.610000
-76.159864 186.913146 875.610000
-76.209107 186.945049 874.610000
-76.243642 187.349512 873.610000
-76.278463 187.696866 872.610000
-76.320699 187.778044 871.610000
-76.353937 188.065782 870.610000
-76.395575 188.072916 869.610000
-76.440260 187.940827 868.610000
-76.464737 188.322583 867.610000
-76.491896 188.566403 866.610000
-76.504361 189.203826 865.610000
-76.533373 189.287862 864.610000
-76.569090 189.057811 863.610000
-76.592156 189.202334 862.610000
-76.618528 189.163042 861.610000
-76.638268 189.242786 860.610000
-76.648689 189.559423 859.610000
-76.663090 189.660026 858.610000
-76.681145 189.552431 857.610000
-76.691346 189.629869 856.610000
-76.698029 189.826139 855.610000
-76.696083 190.134065 854.610000
-76.705205 190.026321 853.610000
-76.703023 190.180887 852.610000
-76.697959 190.374968 851.610000
-76.677889 190.930688 850.610000
-76.681106 190.690114 849.610000
-76.661249 191.069809 848.610000
-76.641565 191.362525 847.610000
-76.618368 191.668322 846.610000
-76.598228 191.796537 845.610000
-76.583502 191.641706 844.610000
-76.568250 191.376892 843.610000
-76.533826 191.709636 842.610000
-76.507878 191.586568 841.610000
-76.463300 192.090731 840.610000
-76.440801 191.667432 839.610000
-76.403083 191.681100 838.610000
-76.371450 191.427938 837.610000
-76.326033 191.499445 836.610000
-76.279325 191.494261 835.610000
-76.252503 190.752619 834.610000
-76.213757 190.288465 833.610000
-76.173891 189.812642 832.610000
-76.117859 189.714610 831.610000
-76.067865 189.329097 830.610000
-76.001819 189.327079 829.610000
-75.889059 190.592629 828.610000
-75.766078 192.009329 827.610000
-75.686555 192.078143 826.610000
-75.580477 192.778947 825.610000
-75.500202 192.639789 824.610000
-75.411477 192.636303 823.610000
-75.332677 192.261228 822.610000
-75.280221 191.124350 821.610000
-75.203139 190.556374 820.610000
-75.110048 190.291972 819.610000
-75.013150 190.099276 818.610000
-74.904218 190.080455 817.610000
-74.782602 190.187907 816.610000
-74.655013 190.391688 815.610000
-74.530763 190.438110 814.610000
-74.411682 190.274546 813.610000
-74.275618 190.413586 812.610000
-74.134826 190.556504 811.610000
-73.932348 191.993585 810.610000
-73.809835 191.541526 809.610000
-73.665522 191.472000 808.610000
-73.550457 190.660960 807.610000
-73.433011 189.887869 806.610000
-68.889502 191.147845 786.572000
