62.149  167.701  28.6082
57.4038  189.204  29.6082
57.6065  186.909  30.6082
58.6733  184.781  31.6082
61.0121  180.563  32.6082
61.7827  178.187  33.6082
61.752  177.967  34.6082
61.823  175.437  35.6082
61.3806  172.834  36.6082
60.7554  170.18  37.6082
59.9017  169.792  38.6082
58.1537  166.952  39.6082
53.3788  166.177  40.6082
44.935  162.858  41.6082
42.911  162.043  42.6082
39.8773  161.209  43.6082
35.4138  158.298  44.6082
31.5564  157.4  45.6082
27.2789  156.474  46.6082
23.2085  155.545  47.6082
19.1962  154.615  48.6082
16.2955  153.805  49.6082
13.4524  153.025  50.6082
11.0883  152.318  51.6082
8.25268  151.617  52.6082
5.81425  150.873  53.6082
2.86585  150.084  54.6082
-1.15538  151.038  55.6082
-4.65659  150.355  56.6082
-7.43331  149.699  57.6082
-10.0499  149.043  58.6082
-12.2736  150.102  59.6082
-14.8627  149.623  60.6082
-16.9981  149.138  61.6082
-19.2686  150.136  62.6082
-21.2747  149.68  63.6082
-23.1548  149.291  64.6082
-24.7895  150.376  65.6082
-27.3183  149.843  66.6082
-30.3083  149.277  67.6082
-33.4443  150.111  68.6082
-35.8662  149.613  69.6082
-38.1762  149.143  70.6082
-40.5442  148.646  71.6082
-43.6414  149.315  72.6082
-46.4554  148.736  73.6082
-48.6961  148.273  74.6082
-50.9228  147.773  75.6082
-53.5918  147.134  76.6082
-54.5697  147.935  77.6082
-56.8178  147.431  78.6082
-59.9469  146.794  79.6082
-62.4509  146.279  80.6082
-64.042  145.862  81.6082
-65.714  145.272  82.6082
-67.8271  144.642  83.6082
-70.3052  144.067  84.6082
-71.7078  142.674  85.6082
-73.7346  142.064  86.6082
-74.8088  141.629  87.6082
-76.2683  141.41  88.6082
-77.2045  141.233  89.6082
-77.9828  140.988  90.6082
-78.6449  139.866  91.6082
-79.4022  139.606  92.6082
-80.1546  139.346  93.6082
-80.7649  139.11  94.6082
-80.8088  138.082  95.6082
-81.4911  138.046  96.6082
-82.1744  138.009  97.6082
-82.8426  137.869  98.6082
-83.4309  136.904  99.6082
-84.003  136.865  100.608
-84.568  136.832  101.608
-84.7747  136.038  102.608
-85.5384  136.015  103.608
-85.5754  135.948  104.608
-85.5743  135.869  105.608
-85.6986  135.131  106.608
-86.3778  135.19  107.608
-86.5008  135.164  108.608
-87.078  135.086  109.608
-87.6382  134.925  110.608
-87.6864  133.992  111.608
-87.8044  133.953  112.608
-88.41  133.94  113.608
-88.501  133.899  114.608
-88.575  133.841  115.608
-88.772  133.856  116.608
-89.5015  133.89  117.608
-89.7407  133.092  118.608
-90.0007  133  119.608
-90.2237  133.02  120.608
-90.4207  133.113  121.608
-90.6317  133.192  122.608
-90.8725  134.018  123.608
-91.0055  134.083  124.608
-91.5411  134.128  125.608
-92.0367  134.056  126.608
-92.0186  133.887  127.608
-91.9857  133.824  128.608
-91.9366  133.878  129.608
-91.8786  133.982  130.608
-91.84  134.892  131.608
-91.834  134.937  132.608
-91.922  134.81  133.608
-92.133  134.763  134.608
-92.554  134.851  135.608
-92.8402  135.605  136.608
-92.9063  135.545  137.608
-92.9773  135.55  138.608
-93.5309  135.662  139.608
-93.575  135.786  140.608
-93.5815  136.588  141.608
-93.5895  136.655  142.608
-93.6865  136.717  143.608
-93.7745  136.779  144.608
-93.8295  136.844  145.608
-93.8865  136.88  146.608
-93.9545  136.788  147.608
-94.0255  136.734  148.608
-94.1145  136.87  149.608
-94.2045  136.991  150.608
-94.3025  136.991  151.608
-93.9214  137.043  152.608
-93.9244  137.148  153.608
-93.9304  137.245  154.608
-93.9804  137.175  155.608
-94.0314  137.108  156.608
-94.0844  137.182  157.608
-93.6654  137.298  158.608
-93.6974  137.249  159.608
-93.7294  137.2  160.608
-93.8634  137.356  161.608
-94.0024  137.522  162.608
-94.0734  137.513  163.608
-93.6653  137.53  164.608
-93.7613  137.527  165.608
-93.8603  137.526  166.608
-93.9203  137.597  167.608
-93.9753  137.679  168.608
-94.0963  137.614  169.608
-94.2323  137.518  170.608
-94.2953  137.624  171.608
-94.3393  137.782  172.608
-94.4673  137.758  173.608
-94.6213  137.682  174.608
-94.2443  137.643  175.608
-94.3183  137.562  176.608
-94.0594  138.395  177.608
-94.2264  138.461  178.608
-94.3554  138.579  179.608
-94.4654  138.722  180.608
-94.5754  138.675  181.608
-94.6864  138.519  182.608
-94.7924  138.606  183.608
-94.8974  138.776  184.608
-94.5138  139.672  185.608
-94.4358  139.667  186.608
-94.3468  139.633  187.608
-93.7785  139.632  188.608
-93.1721  139.711  189.608
-92.9991  139.811  190.608
-92.8441  139.896  191.608
-92.7101  139.963  192.608
-92.6521  139.961  193.608
-92.6901  139.872  194.608
-93.1955  139.74  195.608
-93.2255  139.689  196.608
-93.2925  139.653  197.608
-93.8898  139.584  198.608
-94.2498  139.566  199.608
-95.0588  139.532  200.608
-95.6568  139.477  201.608
-95.7998  139.374  202.608
-95.4865  139.403  203.608
-95.6825  139.568  204.608
-95.8445  139.706  205.608
-95.9045  139.761  206.608
-95.4571  139.881  207.608
-95.4241  139.955  208.608
-95.3611  140.024  209.608
-94.6978  140.132  210.608
-94.3808  140.091  211.608
-93.7588  139.83  212.608
-93.6951  139.57  213.608
-93.3358  139.873  214.608
-93.4458  140.085  215.608
-93.0705  139.972  216.608
-93.1575  139.813  217.608
-93.0965  139.882  218.608
-93.0735  139.947  219.608
-93.2545  139.991  220.608
-92.9422  140.087  221.608
-92.9372  140.081  222.608
-92.9322  140.075  223.608
-93.0752  139.892  224.608
-92.8635  140.584  225.608
-92.9945  140.695  226.608
-93.1255  140.834  227.608
-92.6242  140.876  228.608
-92.5732  140.834  229.608
-92.5732  140.816  230.608
-92.11  140.869  231.608
-92.139  140.892  232.608
-92.174  140.924  233.608
-92.187  140.875  234.608
-92.196  140.806  235.608
-91.7128  140.882  236.608
-91.6908  140.918  237.608
-91.2635  140.993  238.608
-91.4564  141.849  239.608
-91.4864  141.812  240.608
-91.4994  141.76  241.608
-91.0414  141.835  242.608
-91.0504  141.864  243.608
-91.1024  141.86  244.608
-91.1674  141.847  245.608
-90.7114  141.816  246.608
-90.7074  141.681  247.608
-90.2884  141.746  248.608
-90.3594  141.791  249.608
-89.9304  141.977  250.608
-89.9423  142.15  251.608
-89.9663  142.164  252.608
-90.0014  142.02  253.608
-90.0104  141.905  254.608
-89.9873  141.824  255.608
-89.9833  141.778  256.608
-89.5353  141.854  257.608
-89.0843  141.93  258.608
-89.4323  140.96  259.608
-88.9811  141.01  260.608
-89.0101  140.965  261.608
-89.0431  140.953  262.608
-89.0881  141.001  263.608
-89.1151  140.991  264.608
-88.6398  140.927  265.608
-88.5223  139.916  266.608
-88.5543  139.913  267.608
-88.5773  139.927  268.608
-88.5743  139.996  269.608
-88.106  140.093  270.608
-88.0195  139.088  271.608
-87.5713  139.073  272.608
-87.6153  139.072  273.608
-87.6553  139.062  274.608
-87.196  139.045  275.608
-86.6391  138.082  276.608
-86.6011  138.062  277.608
-86.5691  138.041  278.608
-86.5941  138.025  279.608
-86.6171  138.014  280.608
-86.5871  138.11  281.608
-86.4831  137.248  282.608
-86.0604  137.061  283.608
-86.1104  136.84  284.608
-85.6737  136.774  285.608
-85.7096  136.676  286.608
-85.7667  136.788  287.608
-85.8247  136.912  288.608
-85.376  136.841  289.608
-85.396  136.714  290.608
-84.9393  136.672  291.608
-84.9543  136.604  292.608
-84.9593  136.597  293.608
-84.9643  136.589  294.608
-84.5336  136.48  295.608
-84.5836  136.309  296.608
-84.6346  136.269  297.608
-84.2928  137.303  298.608
-84.3828  137.401  299.608
-84.4838  137.531  300.608
-84.5248  137.397  301.608
-84.0687  137.198  302.608
-84.214  138.073  303.608
-83.8047  138.031  304.608
-83.8767  138.055  305.608
-83.9537  138.139  306.608
-83.5984  138.128  307.608
-83.3838  139.061  308.608
-83.4698  138.969  309.608
-83.0485  138.976  310.608
-83.0845  138.967  311.608
-83.1095  138.992  312.608
-82.6652  138.997  313.608
-82.2228  138.928  314.608
-82.4247  139.941  315.608
-82.5247  139.989  316.608
-82.6057  139.992  317.608
-82.6657  139.944  318.608
-82.2545  139.95  319.608
-82.3095  139.878  320.608
-81.8742  139.824  321.608
-81.8752  139.631  322.608
-81.9162  139.556  323.608
-82.0272  139.687  324.608
-82.1102  139.762  325.608
-82.1332  139.723  326.608
-81.684  139.749  327.608
-81.696  139.707  328.608
-81.2187  139.734  329.608
-81.0116  138.616  330.608
-80.9735  138.594  331.608
-81.0255  138.599  332.608
-81.0695  138.576  333.608
-80.6192  138.5  334.608
-80.6422  138.4  335.608
-80.6822  138.473  336.608
-80.7152  138.524  337.608
-80.6932  138.426  338.608
-80.6702  138.325  339.608
-80.6452  138.21  340.608
-80.6252  138.114  341.608
-80.6732  138.285  342.608
-80.7202  138.448  343.608
-80.2979  138.43  344.608
-80.3459  138.353  345.608
-80.3019  138.288  346.608
-80.2589  138.223  347.608
-80.2399  138.287  348.608
-80.2209  138.354  349.608
-80.1799  138.384  350.608
-80.1369  138.411  351.608
-79.6276  138.383  352.608
-79.5886  138.286  353.608
-79.5356  138.195  354.608
-79.4796  138.104  355.608
-79.7908  137.053  356.608
-79.7628  137.144  357.608
-79.7838  137.037  358.608
-79.8049  136.929  359.608
-79.7379  136.959  360.608
-79.6458  137.027  361.608
-79.1126  137.112  362.608
-79.0596  137.136  363.608
-79.0166  137.102  364.608
-78.9766  137.045  365.608
-78.9256  137.042  366.608
-78.8686  137.063  367.608
-78.3753  137.203  368.608
-78.3703  137.33  369.608
-78.3343  137.327  370.608
-78.7476  137.19  371.608
-78.6606  137.092  372.608
-78.5546  136.985  373.608
-78.5036  136.967  374.608
-78.5006  137.021  375.608
-78.4756  137.011  376.608
-78.4316  136.941  377.608
-78.3806  136.886  378.608
-78.3236  136.848  379.608
-78.1731  135.727  380.608
-78.1461  135.764  381.608
-78.2241  135.769  382.608
-78.4481  135.728  383.608
-78.4291  135.534  384.608
-77.529  135.123  385.608
-77.218  134.915  386.608
-77.014  134.933  387.608
-76.745  135.007  388.608
-76.327  135.209  389.608
-75.536  135.352  390.608
-75.3557  134.086  391.608
-75.2767  133.95  392.608
-75.2287  133.8  393.608
-75.1637  133.724  394.608
-75.0447  133.893  395.608
-74.9517  133.964  396.608
-74.9677  133.638  397.608
-74.9367  133.367  398.608
-74.6677  133.378  399.608
-74.3522  132.233  400.608
-74.2522  132.105  401.608
-74.6334  131.975  402.608
-74.5584  131.925  403.608
-74.4814  131.873  404.608
-74.3624  131.766  405.608
-74.2424  131.659  406.608
-74.0884  131.572  407.608
-74.4066  131.459  408.608
-74.1926  131.313  409.608
-73.9776  131.167  410.608
-74.3658  130.951  411.608
-74.2858  130.759  412.608
-74.1218  130.738  413.608
-73.9528  130.729  414.608
-74.257  130.556  415.608
-74.089  130.393  416.608
-74.3782  130.202  417.608
-74.1912  130.036  418.608
-74.0332  129.937  419.608
-73.8802  129.851  420.608
-74.2074  129.687  421.608
-74.0644  129.534  422.608
-73.9034  129.442  423.608
-73.7374  129.367  424.608
-74.0006  129.054  425.608
-73.7766  128.694  426.608
-73.5166  128.578  427.608
-73.2416  128.565  428.608
-73.0626  128.425  429.608
-72.9286  128.225  430.608
-72.7346  128.076  431.608
-72.5086  127.955  432.608
-72.7568  127.691  433.608
-72.5308  127.376  434.608
-72.2768  127.238  435.608
-72.0138  127.147  436.608
-71.7718  127.042  437.608
-71.5448  126.927  438.608
-71.2738  126.76  439.608
-70.9598  126.544  440.608
-70.6428  126.349  441.608
-70.274  125.103  442.608
-69.927  124.93  443.608
-69.0755  124.775  444.608
-68.7415  124.595  445.608
-68.4365  124.409  446.608
-68.1175  124.254  447.608
-67.7755  124.149  448.608
-66.9529  124.022  449.608
-66.0936  122.761  450.608
-65.7166  122.57  451.608
-65.3006  122.357  452.608
-64.8986  122.109  453.608
-64.5326  121.774  454.608
-63.1801  121.524  455.608
-62.6581  121.459  456.608
-62.1861  121.351  457.608
-61.8781  121.097  458.608
-60.5765  120.869  459.608
-60.0185  120.666  460.608
-59.4905  120.444  461.608
-59.1235  120.125  462.608
-58.2717  119.854  463.608
-57.8227  119.854  464.608
-56.9159  119.831  465.608
-55.6874  119.511  466.608
-55.3984  119.179  467.608
-54.9624  118.92  468.608
-54.5244  118.664  469.608
-54.0504  118.542  470.608
-53.5764  118.419  471.608
-53.2054  118.214  472.608
-52.8354  118.008  473.608
-52.5324  117.703  474.608
-51.7893  118.574  475.608
-51.5713  118.462  476.608
-50.4141  118.4  477.608
-50.0571  118.228  478.608
-49.6841  118.048  479.608
-49.5299  118.992  480.608
-48.8777  118.764  481.608
-48.7127  118.486  482.608
-48.5517  118.202  483.608
-48.2507  118.141  484.608
-47.9137  118.138  485.608
-47.8028  118.913  486.608
-47.6358  118.447  487.608
-47.4108  118.277  488.608
-47.1788  118.14  489.608
-46.5251  118.028  490.608
-46.3661  117.88  491.608
-45.7314  117.768  492.608
-45.6625  118.832  493.608
-45.5805  118.452  494.608
-45.5455  117.936  495.608
-45.4025  117.815  496.608
-45.2205  117.835  497.608
-45.0105  117.726  498.608
-44.3075  117.565  499.608
-44.1565  117.382  500.608
-44.0755  117.214  501.608
-43.5434  117.049  502.608
-43.6222  118.027  503.608
-43.4912  117.939  504.608
-43.2552  118.029  505.608
-43.0312  117.918  506.608
-42.8232  117.559  507.608
-43.1015  117.273  508.608
-42.9185  117.13  509.608
-42.5865  115.813  510.608
-42.3165  115.782  511.608
-42.0995  115.757  512.608
-42.4065  115.696  513.608
-42.2515  115.567  514.608
-42.5936  115.159  515.608
-42.4416  114.888  516.608
-42.2296  114.881  517.608
-41.5065  114.919  518.608
-41.6086  114.888  519.608
-41.3516  114.862  520.608
-41.2101  113.567  521.608
-41.6018  113.429  522.608
-41.3728  113.279  523.608
-40.6651  113.228  524.608
-40.4101  113.316  525.608
-40.1621  113.381  526.608
-40.4278  113.238  527.608
-40.2568  113.142  528.608
-40.1718  113.082  529.608
-40.0067  111.843  530.608
-39.8017  112.024  531.608
-39.5937  112.204  532.608
-39.2407  112.22  533.608
-39.3609  112.211  534.608
-39.2659  111.935  535.608
-39.1749  111.653  536.608
-38.9339  111.791  537.608
-38.6859  111.951  538.608
-38.4559  112.116  539.608
-38.2259  112.282  540.608
-37.6157  112.268  541.608
-37.4897  112.203  542.608
-37.3356  110.823  543.608
-37.2346  110.637  544.608
-36.9566  110.824  545.608
-36.6396  111.093  546.608
-36.4756  111.109  547.608
-36.3516  111.056  548.608
-36.2696  111.069  549.608
-36.2016  111.102  550.608
-35.9906  111.124  551.608
-35.7246  111.143  552.608
-35.4176  111.194  553.608
-35.0926  111.259  554.608
-34.9636  111.13  555.608
-34.9376  110.901  556.608
-34.8456  110.984  557.608
-34.7126  111.259  558.608
-34.5176  111.479  559.608
-34.2996  111.68  560.608
-34.1256  111.674  561.608
-34.4581  111.488  562.608
-34.3231  111.34  563.608
-34.1921  111.203  564.608
-34.0091  111.281  565.608
-33.7751  111.574  566.608
-33.5781  111.722  567.608
-33.4241  111.702  568.608
-33.3241  111.681  569.608
-33.2971  111.658  570.608
-32.6976  111.66  571.608
-32.4236  111.657  572.608
-32.1776  111.66  573.608
-31.9846  111.675  574.608
-31.8396  111.663  575.608
-31.7946  111.601  576.608
-31.7256  111.625  577.608
-31.126  111.865  578.608
-30.9817  112.034  579.608
-30.7879  112.05  580.608
-30.5986  112.032  581.608
-30.4248  111.895  582.608
-30.2779  111.756  583.608
-30.238  111.611  584.608
-30.1705  111.552  585.608
-29.5374  113.174  586.608
-29.3528  113.449  587.608
-29.2409  113.42  588.608
-28.6494  113.408  589.608
-28.479  113.323  590.608
-27.827  113.25  591.608
-27.6271  113.121  592.608
-27.4278  113.003  593.608
-27.2469  113.155  594.608
-26.593  113.332  595.608
-26.0793  113.336  596.608
-26.0388  113.315  597.608
-25.9138  113.402  598.608
-25.8623  114.735  599.608
-25.1506  114.757  600.608
-24.912  114.735  601.608
-24.8001  114.658  602.608
-25.1609  114.547  603.608
-25.0725  114.542  604.608
-24.5144  114.588  605.608
-24.4142  114.854  606.608
-24.3141  115.12  607.608
-24.1501  115.074  608.608
-23.9832  115.015  609.608
-23.3299  114.953  610.608
-23.1454  114.848  611.608
-22.9938  114.772  612.608
-22.381  114.74  613.608
-22.2529  114.938  614.608
-22.13  115.25  615.608
-22.0998  115.286  616.608
-22.1142  115.189  617.608
-21.5438  115.227  618.608
-20.91  115.321  619.608
-20.7392  115.255  620.608
-19.1441  115.205  621.608
-19.0093  115.218  622.608
-18.4162  115.319  623.608
-18.3694  115.359  624.608
-17.9104  115.407  625.608
-17.863  115.536  626.608
-17.7854  115.719  627.608
-17.6169  115.789  628.608
-17.3503  115.735  629.608
-17.2391  115.593  630.608
-16.7364  115.439  631.608
-16.1974  115.427  632.608
-16.0796  115.582  633.608
-16.0018  115.715  634.608
-15.9917  115.808  635.608
-15.9261  115.889  636.608
-15.7592  115.945  637.608
-15.1201  115.985  638.608
-14.9548  115.883  639.608
-13.8336  115.865  640.608
-12.6848  115.894  641.608
-12.5052  115.892  642.608
-12.3995  115.995  643.608
-12.311  116.075  644.608
-12.2851  116.076  645.608
-12.2228  116.095  646.608
-12.0039  116.19  647.608
-11.7987  116.231  648.608
-11.6749  115.951  649.608
-11.0352  115.799  650.608
-10.8678  117.247  651.608
-10.6692  117.272  652.608
-10.6979  117.205  653.608
-10.2061  117.241  654.608
-9.5844  117.444  655.608
-9.44309  117.551  656.608
-9.3407  117.405  657.608
-8.9023  118.715  658.608
-8.6419  118.667  659.608
-8.3948  118.618  660.608
-8.2815  118.545  661.608
-8.1757  118.491  662.608
-8.1505  118.634  663.608
-7.81067  120.234  664.608
-7.69837  120.199  665.608
-7.58617  120.164  666.608
-7.41927  120.2  667.608
-7.24207  120.248  668.608
-7.03457  120.06  669.608
-6.82697  119.872  670.608
-5.77642  119.988  671.608
-5.3903  121.497  672.608
-5.2895  121.533  673.608
-5.1894  121.572  674.608
-5.09  121.652  675.608
-4.9909  121.748  676.608
-4.8437  121.653  677.608
-4.67421  121.468  678.608
-4.4846  121.371  679.608
-4.2839  121.324  680.608
-4.175  121.259  681.608
-3.9323  119.744  682.608
-3.38318  119.897  683.608
-3.28578  120.114  684.608
-2.72266  120.149  685.608
-2.63136  120.039  686.608
-2.45226  120.04  687.608
-2.22656  120.1  688.608
-1.12862  120.136  689.608
-0.875033  118.431  690.608
-0.784335  118.386  691.608
-0.68693  118.567  692.608
-0.122578  118.723  693.608
-0.035275  118.729  694.608
0.0739246  118.767  695.608
0.833259  117.411  696.608
0.995261  117.406  697.608
1.19006  117.23  698.608
0.879511  117.1  699.608
1.47546  117.154  700.608
1.57226  117.154  701.608
1.13121  117.081  702.608
1.29692  115.608  703.608
1.39753  115.767  704.608
1.49502  115.871  705.608
1.58123  115.786  706.608
2.15492  115.744  707.608
2.31873  115.718  708.608
2.47692  115.662  709.608
2.60423  115.449  710.608
2.79953  113.844  711.608
2.84203  114.011  712.608
3.34803  114.147  713.608
3.34764  114.069  714.608
3.38433  114.017  715.608
4.02444  114.081  716.608
4.17454  114.078  717.608
4.62773  115.431  718.608
4.70472  115.273  719.608
4.80692  115.359  720.608
4.90912  115.446  721.608
4.84162  115.396  722.608
4.76763  115.34  723.608
4.87452  115.463  724.608
4.87362  117.114  725.608
5.36257  116.98  726.608
5.37947  116.805  727.608
5.48677  116.814  728.608
5.44801  118.354  729.608
5.47832  118.286  730.608
5.49232  118.2  731.608
5.49162  118.357  732.608
5.78694  120.104  733.608
5.80184  120.061  734.608
5.82174  119.955  735.608
5.87944  119.915  736.608
6.21901  121.496  737.608
6.33231  121.382  738.608
5.99347  121.162  739.608
6.45321  121.241  740.608
6.87845  121.362  741.608
6.81925  121.363  742.608
7.22029  121.398  743.608
7.24059  121.532  744.608
7.29419  121.728  745.608
7.33029  121.663  746.608
7.35279  121.394  747.608
7.38429  121.306  748.608
7.89323  121.446  749.608
7.86683  121.42  750.608
7.98073  119.731  751.608
7.91843  119.81  752.608
8.34435  120.068  753.608
8.25985  120.136  754.608
8.30137  118.45  755.608
7.80221  118.297  756.608
7.87311  118.2  757.608
7.91121  118.125  758.608
8.36397  118.138  759.608
8.33297  118.161  760.608
8.27656  118.302  761.608
8.17367  118.362  762.608
8.49202  118.382  763.608
7.91096  118.32  764.608
7.92096  118.355  765.608
7.94006  118.31  766.608
8.91778  118.225  767.608
8.93178  118.074  768.608
8.85928  118.059  769.608
8.76918  118.064  770.608
8.64388  118.112  771.608
8.52088  118.175  772.608
8.41378  118.341  773.608
