-4.01029  226.413  28.6082
-17.7235  223.951  29.6082
-14.8608  225.576  30.6082
-14.8705  225.793  31.6082
-15.1725  225.638  32.6082
-15.6725  225.352  33.6082
-15.8806  225.439  34.6082
-16.5764  225.103  35.6082
-17.2769  224.765  36.6082
-17.8288  224.754  37.6082
-16.3464  224.929  38.6082
-17.3279  224.428  39.6082
-18.9176  223.181  40.6082
-20.6956  222.059  41.6082
-22.5446  220.9  42.6082
-24.6319  220.116  43.6082
-27.4133  218.597  44.6082
-29.6747  217.398  45.6082
-31.8827  216.185  46.6082
-34.4798  214.235  47.6082
-36.7207  212.651  48.6082
-39.3935  210.417  49.6082
-42.0087  208.214  50.6082
-44.0221  206.803  51.6082
-46.3317  205.048  52.6082
-49.0158  202.864  53.6082
-54.4358  199.165  54.6082
-57.183  197.035  55.6082
-59.9584  194.957  56.6082
-62.7742  192.508  57.6082
-66.8048  189.921  58.6082
-69.4117  187.563  59.6082
-71.153  186.426  60.6082
-74.2126  185.033  61.6082
-75.6971  184.2  62.6082
-77.7624  183.959  63.6082
-78.9702  183.265  64.6082
-81.5129  182.242  65.6082
-83.8588  181.535  66.6082
-86.175  180.815  67.6082
-88.2157  180.495  68.6082
-90.6403  179.353  69.6082
-92.6872  178.617  70.6082
-94.5472  178.244  71.6082
-97.1692  178.146  72.6082
-99.391  176.869  73.6082
-102.304  175.455  74.6082
-104.761  174.792  75.6082
-107.3  173.541  76.6082
-109.774  172.239  77.6082
-111.959  171.849  78.6082
-114.069  171.424  79.6082
-115.908  171.462  80.6082
-117.853  170.94  81.6082
-119.795  170.667  82.6082
-121.11  170.328  83.6082
-122.896  170.629  84.6082
-124.12  170.368  85.6082
-125.356  169.983  86.6082
-126.569  170.104  87.6082
-127.716  170.495  88.6082
-128.817  170.379  89.6082
-129.126  170.2  90.6082
-130.067  170.002  91.6082
-130.371  170.273  92.6082
-130.653  170.071  93.6082
-130.793  169.893  94.6082
-130.934  169.717  95.6082
-131.145  169.73  96.6082
-131.357  169.743  97.6082
-131.554  169.652  98.6082
-131.108  169.573  99.6082
-131.208  169.575  100.608
-131.301  169.584  101.608
-130.929  169.127  102.608
-131.22  169.137  103.608
-130.623  169.065  104.608
-130.622  168.986  105.608
-130.162  169.028  106.608
-130.368  169.112  107.608
-129.857  169.058  108.608
-129.986  168.532  109.608
-129.482  167.885  110.608
-128.948  167.677  111.608
-129.066  167.638  112.608
-128.634  167.111  113.608
-128.725  167.07  114.608
-128.193  166.943  115.608
-128.39  166.958  116.608
-127.977  167.399  117.608
-127.625  167.267  118.608
-127.885  167.175  119.608
-127.417  167.56  120.608
-127.532  168.119  121.608
-127.12  168.083  122.608
-127.25  168.617  123.608
-127.383  168.682  124.608
-126.717  169.079  125.608
-126.739  169.024  126.608
-126.82  168.391  127.608
-126.787  168.328  128.608
-126.738  168.382  129.608
-126.68  168.486  130.608
-126.609  168.655  131.608
-126.603  168.7  132.608
-126.592  169.037  133.608
-126.803  168.99  134.608
-127.224  169.078  135.608
-127.465  169.092  136.608
-127.531  169.032  137.608
-127.602  169.037  138.608
-127.683  169.182  139.608
-127.727  169.306  140.608
-127.578  169.84  141.608
-127.586  169.907  142.608
-127.683  169.969  143.608
-127.672  170.495  144.608
-127.727  170.56  145.608
-127.784  170.596  146.608
-127.852  170.504  147.608
-127.825  170.913  148.608
-127.914  171.049  149.608
-128.004  171.17  150.608
-128.102  171.17  151.608
-128.193  171.181  152.608
-128.196  171.286  153.608
-127.436  171.699  154.608
-127.486  171.629  155.608
-127.537  171.562  156.608
-127.59  171.636  157.608
-127.536  172.172  158.608
-127.568  172.123  159.608
-127.601  172.074  160.608
-127.628  172.692  161.608
-127.767  172.858  162.608
-127.838  172.849  163.608
-127.902  172.824  164.608
-127.998  172.821  165.608
-127.99  173.282  166.608
-128.05  173.353  167.608
-128.105  173.435  168.608
-128.12  173.831  169.608
-128.256  173.735  170.608
-128.212  174.303  171.608
-128.256  174.461  172.608
-129.19  174.131  173.608
-129.344  174.055  174.608
-129.439  173.975  175.608
-129.513  173.894  176.608
-129.652  173.915  177.608
-129.721  174.444  178.608
-129.85  174.562  179.608
-130.67  174.85  180.608
-130.78  174.803  181.608
-130.891  174.647  182.608
-130.997  174.734  183.608
-131.012  175.369  184.608
-131.011  175.438  185.608
-131.653  175.566  186.608
-131.564  175.532  187.608
-131.466  175.473  188.608
-131.33  175.494  189.608
-131.157  175.594  190.608
-131.002  175.679  191.608
-130.868  175.746  192.608
-130.81  175.744  193.608
-131.571  175.776  194.608
-131.458  176.638  195.608
-131.488  176.587  196.608
-131.555  176.551  197.608
-131.682  176.54  198.608
-132.042  176.522  199.608
-132.777  176.956  200.608
-133.375  176.901  201.608
-133.518  176.798  202.608
-133.675  176.769  203.608
-133.945  176.466  204.608
-134.107  176.604  205.608
-134.241  176.191  206.608
-134.264  176.253  207.608
-134.231  176.327  208.608
-134.242  175.928  209.608
-134.049  175.978  210.608
-133.658  176.405  211.608
-133.036  176.144  212.608
-132.502  175.942  213.608
-132.465  177.123  214.608
-132.575  177.335  215.608
-132.67  177.165  216.608
-132.757  177.006  217.608
-132.696  177.075  218.608
-132.599  177.608  219.608
-132.78  177.652  220.608
-132.938  177.69  221.608
-133.691  177.798  222.608
-133.686  177.792  223.608
-133.829  177.609  224.608
-133.913  177.887  225.608
-134.044  177.998  226.608
-134.942  178.238  227.608
-134.91  178.214  228.608
-134.802  178.642  229.608
-134.802  178.624  230.608
-135.585  178.7  231.608
-135.565  179.194  232.608
-135.6  179.226  233.608
-135.613  179.177  234.608
-136.409  179.184  235.608
-136.395  179.194  236.608
-136.373  179.23  237.608
-136.374  179.711  238.608
-137.236  179.774  239.608
-137.266  179.737  240.608
-137.279  179.685  241.608
-137.289  179.686  242.608
-137.265  180.187  243.608
-138.123  180.233  244.608
-138.163  180.693  245.608
-138.175  180.588  246.608
-138.171  180.453  247.608
-138.195  180.917  248.608
-138.266  180.962  249.608
-138.305  181.074  250.608
-138.317  181.247  251.608
-138.341  181.261  252.608
-138.376  181.117  253.608
-138.36  181.475  254.608
-138.312  181.867  255.608
-138.308  181.821  256.608
-138.328  181.823  257.608
-138.345  181.825  258.608
-138.359  181.825  259.608
-138.377  181.81  260.608
-138.382  182.239  261.608
-138.39  182.7  262.608
-138.435  182.748  263.608
-138.462  182.738  264.608
-138.456  182.608  265.608
-138.459  182.512  266.608
-138.491  182.509  267.608
-138.514  182.523  268.608
-138.511  182.592  269.608
-138.488  183.104  270.608
-138.507  183.025  271.608
-137.666  182.907  272.608
-137.677  183.379  273.608
-137.684  183.842  274.608
-137.696  183.776  275.608
-137.702  183.715  276.608
-137.664  183.695  277.608
-137.632  183.674  278.608
-137.624  184.13  279.608
-137.647  184.119  280.608
-137.584  184.688  281.608
-137.555  184.78  282.608
-137.605  184.56  283.608
-137.655  184.339  284.608
-137.691  184.239  285.608
-137.727  184.141  286.608
-137.784  184.253  287.608
-137.842  184.377  288.608
-137.833  184.746  289.608
-137.853  184.619  290.608
-137.836  185.016  291.608
-137.851  184.948  292.608
-137.856  184.941  293.608
-138.774  184.989  294.608
-138.791  185.321  295.608
-138.841  185.15  296.608
-138.892  185.11  297.608
-138.944  185.108  298.608
-139.957  185.246  299.608
-140.058  185.376  300.608
-140.082  185.715  301.608
-140.082  185.949  302.608
-140.13  185.814  303.608
-141.131  185.748  304.608
-141.195  186.245  305.608
-141.264  186.803  306.608
-141.38  186.742  307.608
-141.519  186.594  308.608
-142.561  186.51  309.608
-142.61  186.933  310.608
-142.646  186.924  311.608
-142.671  186.949  312.608
-142.697  186.896  313.608
-142.725  186.769  314.608
-143.761  187.194  315.608
-143.869  187.714  316.608
-143.95  187.717  317.608
-144.01  187.669  318.608
-144.068  187.61  319.608
-144.123  187.538  320.608
-144.157  187.418  321.608
-144.158  187.225  322.608
-144.199  187.15  323.608
-144.318  187.755  324.608
-145.391  187.804  325.608
-145.414  187.765  326.608
-145.434  187.725  327.608
-145.462  188.157  328.608
-145.454  188.118  329.608
-145.407  188.56  330.608
-145.369  188.538  331.608
-145.421  188.543  332.608
-145.481  188.994  333.608
-145.501  188.861  334.608
-145.541  189.235  335.608
-145.581  189.308  336.608
-144.591  189.385  337.608
-144.578  189.761  338.608
-144.555  189.66  339.608
-144.53  189.545  340.608
-144.51  189.449  341.608
-144.558  189.62  342.608
-144.605  189.783  343.608
-144.653  189.707  344.608
-144.701  189.63  345.608
-144.657  189.565  346.608
-143.583  189.509  347.608
-143.564  189.573  348.608
-143.545  189.64  349.608
-143.504  189.67  350.608
-143.461  189.697  351.608
-143.422  190.085  352.608
-143.383  189.988  353.608
-143.33  189.897  354.608
-143.274  189.806  355.608
-143.241  190.393  356.608
-143.213  190.01  357.608
-143.234  189.903  358.608
-142.216  189.786  359.608
-142.149  189.816  360.608
-142.057  189.884  361.608
-141.995  189.92  362.608
-141.942  189.944  363.608
-141.899  189.91  364.608
-142.898  189.862  365.608
-142.847  189.859  366.608
-142.79  189.88  367.608
-142.768  189.97  368.608
-142.763  190.097  369.608
-142.727  190.094  370.608
-142.669  190.007  371.608
-142.582  189.909  372.608
-142.476  189.802  373.608
-142.425  189.784  374.608
-142.422  189.838  375.608
-142.397  189.828  376.608
-143.392  189.749  377.608
-143.341  189.694  378.608
-143.284  189.656  379.608
-143.241  189.651  380.608
-143.214  189.688  381.608
-143.292  189.693  382.608
-143.516  189.652  383.608
-143.497  189.458  384.608
-143.069  189.006  385.608
-143.797  188.771  386.608
-143.593  188.789  387.608
-143.324  188.863  388.608
-142.906  189.065  389.608
-142.57  188.693  390.608
-142.479  188.561  391.608
-142.4  188.425  392.608
-142.352  188.275  393.608
-142.287  188.199  394.608
-142.152  187.895  395.608
-142.059  187.966  396.608
-142.075  187.64  397.608
-142.044  187.369  398.608
-141.758  186.906  399.608
-142.55  187.327  400.608
-142.425  186.726  401.608
-142.333  186.62  402.608
-142.258  186.57  403.608
-142.181  186.518  404.608
-142.062  186.411  405.608
-141.918  185.831  406.608
-141.764  185.744  407.608
-141.609  185.656  408.608
-141.395  185.51  409.608
-141.18  185.364  410.608
-141.095  185.173  411.608
-141.015  184.981  412.608
-140.851  184.96  413.608
-140.682  184.951  414.608
-140.513  184.803  415.608
-140.345  184.64  416.608
-140.161  184.474  417.608
-139.974  184.308  418.608
-139.791  183.735  419.608
-139.638  183.649  420.608
-139.492  183.509  421.608
-139.349  183.356  422.608
-140.184  183.203  423.608
-140.018  183.128  424.608
-139.808  182.84  425.608
-139.584  182.48  426.608
-139.324  182.364  427.608
-139.016  181.879  428.608
-138.837  181.739  429.608
-138.703  181.539  430.608
-138.509  181.39  431.608
-138.283  181.269  432.608
-138.058  181.03  433.608
-137.832  180.715  434.608
-137.578  180.577  435.608
-137.315  180.486  436.608
-137.073  180.381  437.608
-136.846  180.266  438.608
-136.542  179.626  439.608
-136.261  179.883  440.608
-135.944  179.688  441.608
-135.589  179.04  442.608
-135.242  178.867  443.608
-134.864  178.696  444.608
-134.53  178.516  445.608
-134.225  178.33  446.608
-133.906  178.175  447.608
-133.564  178.07  448.608
-133.215  177.926  449.608
-132.858  177.745  450.608
-132.481  177.554  451.608
-132.065  177.341  452.608
-131.663  177.093  453.608
-131.297  176.758  454.608
-131.911  176.887  455.608
-131.389  176.822  456.608
-130.917  176.714  457.608
-130.609  176.46  458.608
-130.255  176.215  459.608
-129.697  176.012  460.608
-129.128  175.318  461.608
-128.802  175.471  462.608
-128.424  175.192  463.608
-127.975  175.192  464.608
-127.542  175.16  465.608
-127.261  174.824  466.608
-126.972  174.492  467.608
-126.536  174.233  468.608
-126.098  173.977  469.608
-125.624  173.855  470.608
-125.109  173.26  471.608
-124.738  173.055  472.608
-124.368  172.849  473.608
-124.065  172.544  474.608
-123.765  172.236  475.608
-123.547  172.124  476.608
-123.337  172.029  477.608
-123.021  172.329  478.608
-122.648  172.149  479.608
-122.442  171.906  480.608
-122.263  171.653  481.608
-122.098  171.375  482.608
-121.937  171.091  483.608
-121.636  171.03  484.608
-121.299  171.027  485.608
-121.115  170.608  486.608
-120.948  170.142  487.608
-120.723  169.972  488.608
-120.491  169.835  489.608
-120.31  169.69  490.608
-120.192  170.014  491.608
-120.03  169.869  492.608
-118.872  169.802  493.608
-118.79  169.422  494.608
-118.755  168.906  495.608
-118.612  168.785  496.608
-118.43  168.805  497.608
-118.253  169.169  498.608
-118.022  168.967  499.608
-117.871  168.784  500.608
-116.786  168.678  501.608
-116.726  168.471  502.608
-116.736  169.172  503.608
-116.63  169.557  504.608
-116.468  171.067  505.608
-116.244  170.956  506.608
-114.965  170.169  507.608
-114.756  169.459  508.608
-114.573  169.316  509.608
-114.358  169.215  510.608
-114.088  169.184  511.608
-113.871  169.159  512.608
-112.667  169.166  513.608
-112.512  169.037  514.608
-112.382  168.67  515.608
-112.23  168.399  516.608
-112.018  168.392  517.608
-111.767  168.389  518.608
-111.397  168.399  519.608
-110.101  168.382  520.608
-110.054  168.762  521.608
-109.973  169.131  522.608
-109.744  169.455  523.608
-109.509  169.371  524.608
-109.254  169.459  525.608
-109.006  169.524  526.608
-108.799  169.414  527.608
-108.628  168.844  528.608
-108.543  168.784  529.608
-108.451  169.213  530.608
-108.246  169.867  531.608
-108.038  170.047  532.608
-107.685  170.063  533.608
-107.332  170.079  534.608
-107.237  169.33  535.608
-107.146  169.048  536.608
-107.977  169.65  537.608
-107.729  169.81  538.608
-107.499  169.975  539.608
-107.269  170.141  540.608
-107.132  170.102  541.608
-106.998  169.563  542.608
-107.959  169.35  543.608
-107.858  169.164  544.608
-107.58  169.351  545.608
-107.263  169.62  546.608
-107.099  169.636  547.608
-106.975  169.583  548.608
-106.893  169.596  549.608
-107.913  170.056  550.608
-107.702  170.078  551.608
-107.436  170.097  552.608
-107.129  170.148  553.608
-106.804  170.213  554.608
-106.675  170.084  555.608
-105.561  169.428  556.608
-105.469  169.511  557.608
-105.336  169.786  558.608
-105.141  170.006  559.608
-104.94  170.681  560.608
-103.686  170.229  561.608
-103.545  170.06  562.608
-102.346  169.922  563.608
-102.215  169.785  564.608
-102.032  169.863  565.608
-100.734  170.146  566.608
-100.537  170.294  567.608
-99.3031  170.72  568.608
-99.2031  170.699  569.608
-98.105  170.629  570.608
-97.979  170.614  571.608
-96.6018  171.018  572.608
-96.3558  171.021  573.608
-95.0444  171.424  574.608
-94.8994  171.412  575.608
-93.7707  171.245  576.608
-93.7017  171.269  577.608
-93.5262  171.965  578.608
-92.292  172.009  579.608
-92.0982  172.025  580.608
-91.9089  172.007  581.608
-91.7351  171.87  582.608
-91.5304  172.202  583.608
-91.4905  172.057  584.608
-91.423  171.998  585.608
-91.1529  172.861  586.608
-90.9683  173.136  587.608
-90.8564  173.107  588.608
-90.7381  173.071  589.608
-90.5677  172.986  590.608
-90.3311  173.358  591.608
-90.1312  173.229  592.608
-89.9319  173.111  593.608
-89.6933  173.734  594.608
-89.5126  173.886  595.608
-90.5949  173.993  596.608
-90.5544  173.972  597.608
-90.4294  174.059  598.608
-90.3018  174.149  599.608
-90.0628  174.138  600.608
-89.8242  174.116  601.608
-89.7123  174.039  602.608
-90.7252  174.069  603.608
-90.5955  174.536  604.608
-90.5101  174.549  605.608
-90.4099  174.815  606.608
-90.2685  175.553  607.608
-90.0632  175.979  608.608
-89.8963  175.92  609.608
-89.7157  175.825  610.608
-89.5312  175.72  611.608
-89.3796  175.644  612.608
-89.2395  175.579  613.608
-89.0701  176.249  614.608
-88.9472  176.561  615.608
-88.917  176.597  616.608
-88.8901  176.972  617.608
-88.7924  176.976  618.608
-88.6313  177.037  619.608
-87.245  177.33  620.608
-87.068  177.181  621.608
-86.9332  177.194  622.608
-86.7632  177.733  623.608
-86.7164  177.773  624.608
-85.5499  177.654  625.608
-85.5024  177.783  626.608
-85.3671  178.436  627.608
-85.1408  178.977  628.608
-83.6801  178.765  629.608
-83.5689  178.623  630.608
-82.2735  178.726  631.608
-82.2072  178.681  632.608
-82.0153  179.304  633.608
-80.7332  179.236  634.608
-80.6408  179.796  635.608
-79.2761  180.118  636.608
-79.1092  180.174  637.608
-78.9428  180.181  638.608
-77.4663  180.295  639.608
-77.2905  180.211  640.608
-75.7642  180.367  641.608
-75.5846  180.365  642.608
-75.3723  180.929  643.608
-73.9417  181.174  644.608
-73.9158  181.175  645.608
-72.6233  180.876  646.608
-72.4044  180.971  647.608
-72.1992  181.012  648.608
-70.5898  181.304  649.608
-70.4228  181.119  650.608
-70.2766  180.72  651.608
-70.3392  179.834  652.608
-68.6034  181.221  653.608
-68.5837  181.216  654.608
-68.434  181.378  655.608
-68.2927  181.485  656.608
-68.0517  181.792  657.608
-67.8108  182.1  658.608
-67.5504  182.052  659.608
-67.1647  182.457  660.608
-66.9129  182.837  661.608
-66.8071  182.783  662.608
-66.7819  182.926  663.608
-66.7517  183.058  664.608
-66.6394  183.023  665.608
-66.3887  183.441  666.608
-67.3729  184.312  667.608
-67.1957  184.36  668.608
-66.9882  184.172  669.608
-66.7806  183.984  670.608
-66.6707  183.985  671.608
-66.5653  183.996  672.608
-68.2512  182.561  673.608
-68.1511  182.6  674.608
-68.0517  182.68  675.608
-67.5847  184.149  676.608
-67.1922  184.969  677.608
-67.0227  184.784  678.608
-66.8331  184.687  679.608
-68.1719  184.06  680.608
-67.8337  184.914  681.608
-67.666  185.299  682.608
-67.5872  185.394  683.608
-67.3752  186.071  684.608
-67.2824  186.049  685.608
-67.1911  185.939  686.608
-68.344  186.259  687.608
-68.1183  186.319  688.608
-67.961  186.239  689.608
-67.769  186.472  690.608
-67.6783  186.427  691.608
-67.4743  187.07  692.608
-67.3812  187.177  693.608
-67.2939  187.183  694.608
-67.1847  187.221  695.608
-67.0406  187.31  696.608
-66.8786  187.305  697.608
-66.6838  187.129  698.608
-67.8759  187.341  699.608
-67.752  187.353  700.608
-67.6552  187.353  701.608
-67.6242  187.322  702.608
-67.5757  187.338  703.608
-67.4751  187.497  704.608
-67.3776  187.601  705.608
-67.2914  187.516  706.608
-67.2889  186.977  707.608
-67.1251  186.951  708.608
-66.9669  186.895  709.608
-66.8396  186.682  710.608
-66.8345  186.113  711.608
-66.792  186.28  712.608
-66.7592  186.392  713.608
-66.7596  186.314  714.608
-66.6244  186.725  715.608
-66.4575  186.764  716.608
-66.3074  186.761  717.608
-66.1357  187.029  718.608
-67.4172  187.147  719.608
-67.315  187.233  720.608
-67.2128  187.32  721.608
-68.6435  187.523  722.608
-68.7175  187.467  723.608
-68.6106  187.59  724.608
-69.8591  187.948  725.608
-69.8422  187.772  726.608
-71.1965  187.802  727.608
-71.0892  187.811  728.608
-72.3554  188.004  729.608
-72.3251  187.936  730.608
-72.3111  187.85  731.608
-73.6893  188.164  732.608
-73.6905  188.328  733.608
-75.0556  188.418  734.608
-75.0357  188.312  735.608
-76.3602  188.38  736.608
-76.2884  188.365  737.608
-76.142  188.724  738.608
-77.4285  188.182  739.608
-77.4628  187.722  740.608
-77.5068  187.777  741.608
-77.5412  188.251  742.608
-79.0276  187.333  743.608
-79.0073  187.467  744.608
-78.9371  188.137  745.608
-78.901  188.072  746.608
-77.4521  188.689  747.608
-77.4206  188.601  748.608
-75.9227  189.535  749.608
-75.9491  189.509  750.608
-73.1799  189.609  751.608
-70.4244  189.342  752.608
-69.0649  189.332  753.608
-66.2633  189.372  754.608
-64.805  189.903  755.608
-63.4228  189.487  756.608
-63.3519  189.39  757.608
-63.2072  189.777  758.608
-63.2257  189.741  759.608
-63.1502  190.225  760.608
-63.2066  190.366  761.608
-63.3095  190.426  762.608
-63.569  189.935  763.608
-63.6788  189.923  764.608
-63.6688  189.958  765.608
-63.6497  189.913  766.608
-63.5079  190.19  767.608
-63.3873  190.501  768.608
-63.3532  190.948  769.608
-63.4433  190.953  770.608
-63.5686  191.001  771.608
-63.6916  191.064  772.608
-63.9053  190.768  773.608
