-117.171  -91.7382  124.608
-111.797  -93.693  124.608
-106.214  -96.1225  124.608
-100.674  -98.0962  124.608
-95.298  -100.395  124.608
-90.2906  -103.344  124.608
-86.0866  -107.258  124.608
-82.8125  -112.282  124.608
-80.7542  -117.944  124.608
-80.2134  -124.11  124.608
-80.9385  -129.81  124.608
-82.6122  -135.24  124.608
-85.4442  -140.11  124.608
-89.0887  -144.378  124.608
-93.1327  -148.275  124.608
-97.4719  -151.858  124.608
-102.318  -154.815  124.608
-107.583  -156.573  124.608
-113.09  -157.881  124.608
-118.786  -159.2  124.608
-125.734  -158.686  124.608
-132.175  -156.426  124.608
-138.495  -153.19  124.608
-144.389  -149.076  124.608
-149.738  -144.419  124.608
-154.8  -140.015  124.608
-159.911  -135.502  124.608
-164.79  -130.519  124.608
-168.655  -124.785  124.608
-171.145  -118.187  124.608
-169.039  -111.763  124.608
-163.75  -107.184  124.608
-157.284  -103.856  124.608
-150.443  -101.44  124.608
-143.752  -99.3157  124.608
-137.135  -97.5157  124.608
-130.273  -96.0003  124.608
-123.33  -94.5108  124.608
-117.842  -91.1723  165.608
-112.28  -93.4822  165.608
-106.625  -96.3696  165.608
-101.032  -99.0452  165.608
-95.9247  -102.247  165.608
-91.4203  -106.351  165.608
-87.4938  -111.226  165.608
-84.6044  -116.705  165.608
-83.1175  -122.842  165.608
-82.8059  -129.21  165.608
-83.513  -134.91  165.608
-85.028  -140.188  165.608
-87.615  -144.87  165.608
-90.7109  -149.415  165.608
-94.5073  -153.449  165.608
-98.8194  -157.061  165.608
-103.396  -160.332  165.608
-108.487  -162.524  165.608
-113.898  -163.43  165.608
-119.334  -163.341  165.608
-126.497  -161.397  165.608
-133.582  -158.578  165.608
-140.913  -155.967  165.608
-147.916  -152.845  165.608
-154.428  -148.857  165.608
-160.21  -143.923  165.608
-165.041  -138.025  165.608
-168.618  -131.229  165.608
-170.583  -123.775  165.608
-171.717  -116.552  165.608
-169.322  -109.592  165.608
-165.01  -103.858  165.608
-159.318  -99.486  165.608
-152.934  -96.2476  165.608
-146.129  -94.234  165.608
-139.142  -92.7725  165.608
-132.03  -91.9855  165.608
-124.72  -91.9488  165.608
-130.049  -83.6417  206.608
-122.799  -84.6535  206.608
-116.153  -88.0821  206.608
-109.502  -91.9835  206.608
-103.075  -95.883  206.608
-97.5424  -101.239  206.608
-91.9955  -106.327  206.608
-87.4923  -112.393  206.608
-84.4793  -119.245  206.608
-82.9956  -126.85  206.608
-83.6389  -132.78  206.608
-85.2904  -138.744  206.608
-87.6574  -144.606  206.608
-91.1675  -149.898  206.608
-95.3856  -154.562  206.608
-100.307  -158.398  206.608
-105.412  -161.822  206.608
-109.645  -165.754  206.608
-115.43  -168.111  206.608
-121.679  -168.265  206.608
-129.054  -166.625  206.608
-135.972  -164.133  206.608
-143.371  -161.205  206.608
-150.599  -157.577  206.608
-157.265  -153.184  206.608
-163.069  -147.865  206.608
-167.704  -141.496  206.608
-170.984  -134.258  206.608
-173.251  -126.889  206.608
-175.868  -119.581  206.608
-175.439  -112.6  206.608
-172.821  -105.474  206.608
-169.173  -99.0592  206.608
-164.03  -93.9062  206.608
-157.94  -89.8598  206.608
-151.362  -87.0533  206.608
-144.38  -84.8425  206.608
-137.19  -83.9305  206.608
-129.516  -79.9434  247.608
-121.611  -82.0812  247.608
-113.709  -84.9755  247.608
-106.213  -88.4743  247.608
-99.4454  -93.1531  247.608
-93.1768  -98.6007  247.608
-87.8212  -104.806  247.608
-83.3085  -111.547  247.608
-79.8286  -118.994  247.608
-79.1101  -126.993  247.608
-79.6816  -134.008  247.608
-81.5128  -140.687  247.608
-84.5745  -146.881  247.608
-88.3762  -152.642  247.608
-93.1629  -157.459  247.608
-98.5909  -161.729  247.608
-104.207  -165.886  247.608
-110.393  -168.988  247.608
-117.014  -171.289  247.608
-123.833  -172.268  247.608
-131.736  -170.155  247.608
-139.841  -168.668  247.608
-147.767  -166.526  247.608
-155.356  -163.531  247.608
-162.05  -158.7  247.608
-167.993  -152.912  247.608
-172.978  -146.533  247.608
-176.341  -138.918  247.608
-178.416  -130.933  247.608
-179.124  -122.686  247.608
-178.346  -114.83  247.608
-176.148  -106.883  247.608
-172.528  -99.5739  247.608
-167.019  -93.6191  247.608
-160.406  -89.0615  247.608
-153.241  -85.329  247.608
-145.623  -82.558  247.608
-137.597  -80.9904  247.608
-137.709  -70.3418  288.608
-128.134  -72.4111  288.608
-118.347  -74.427  288.608
-109.605  -78.3025  288.608
-101.804  -83.9509  288.608
-94.1171  -90.3181  288.608
-87.5061  -97.5653  288.608
-81.1232  -105.054  288.608
-76.532  -113.652  288.608
-75.3785  -123.567  288.608
-75.97  -131.981  288.608
-78.0739  -140.044  288.608
-81.7881  -147.434  288.608
-86.481  -154.29  288.608
-92.2949  -160.096  288.608
-98.9618  -165.005  288.608
-106.082  -169.263  288.608
-113.838  -172.148  288.608
-121.964  -174.202  288.608
-130.311  -175.215  288.608
-138.681  -173.324  288.608
-147.119  -171.213  288.608
-155.421  -168.767  288.608
-163.057  -164.649  288.608
-169.731  -159  288.608
-175.439  -152.377  288.608
-180.107  -145.06  288.608
-183.424  -136.969  288.608
-185.062  -128.475  288.608
-185.503  -119.834  288.608
-184.622  -111.491  288.608
-182.557  -103.438  288.608
-179.003  -95.7919  288.608
-174.043  -88.993  288.608
-167.836  -83.483  288.608
-160.915  -78.8082  288.608
-153.317  -75.4536  288.608
-145.277  -73.4496  288.608
-141.799  -62.7235  329.608
-130.814  -63.3412  329.608
-120.274  -66.4546  329.608
-110.356  -71.2034  329.608
-101.238  -77.6142  329.608
-92.9555  -85.0847  329.608
-85.2374  -92.8398  329.608
-78.1655  -101.267  329.608
-73.2908  -110.925  329.608
-71.0932  -121.517  329.608
-72.4305  -130.323  329.608
-75.0997  -138.884  329.608
-79.0942  -146.895  329.608
-84.5843  -154.005  329.608
-91.0871  -160.12  329.608
-98.3028  -165.349  329.608
-106.122  -169.897  329.608
-114.299  -173.877  329.608
-122.721  -177.077  329.608
-131.674  -178.442  329.608
-140.687  -176.048  329.608
-149.992  -173.705  329.608
-159.161  -171.024  329.608
-167.345  -166.435  329.608
-174.73  -160.465  329.608
-181.173  -153.362  329.608
-186.34  -145.225  329.608
-190.019  -136.338  329.608
-192.305  -126.996  329.608
-192.752  -117.364  329.608
-192.358  -108.186  329.608
-190.235  -99.1797  329.608
-186.308  -90.7542  329.608
-181.005  -83.0181  329.608
-174.82  -76.2071  329.608
-167.18  -71.1843  329.608
-158.667  -67.5137  329.608
-150.347  -63.6663  329.608
-136.03  -60.4893  370.608
-125.517  -62.1616  370.608
-115.302  -65.338  370.608
-106.073  -70.4584  370.608
-97.4125  -76.7716  370.608
-89.1762  -83.5769  370.608
-82.0937  -91.4114  370.608
-75.1773  -99.1627  370.608
-70.5719  -108.527  370.608
-68.5146  -119.029  370.608
-69.5214  -128.4  370.608
-72.4425  -137.281  370.608
-77.1197  -145.276  370.608
-83.0686  -152.485  370.608
-90.0039  -158.646  370.608
-97.6033  -163.969  370.608
-105.584  -168.885  370.608
-113.952  -173.145  370.608
-122.641  -176.614  370.608
-131.926  -178.028  370.608
-141.46  -176.121  370.608
-150.976  -173.757  370.608
-160.096  -170.012  370.608
-168.681  -165.343  370.608
-176.287  -159.178  370.608
-182.681  -151.705  370.608
-187.736  -143.311  370.608
-191.318  -134.158  370.608
-193.334  -124.543  370.608
-194.253  -114.815  370.608
-192.955  -105.014  370.608
-190.177  -95.6027  370.608
-185.638  -86.7777  370.608
-179.638  -78.9613  370.608
-172.068  -72.841  370.608
-163.371  -68.4064  370.608
-154.647  -63.8722  370.608
-145.762  -60.7875  370.608
-136.435  -60.2439  386.608
-125.779  -61.7867  386.608
-115.928  -65.1904  386.608
-106.655  -70.5102  386.608
-97.715  -76.6474  386.608
-89.5404  -83.551  386.608
-81.4065  -90.6055  386.608
-73.736  -98.0295  386.608
-69.1067  -107.579  386.608
-67.3693  -118.218  386.608
-68.7562  -127.457  386.608
-71.7588  -136.271  386.608
-76.3877  -144.309  386.608
-82.4423  -151.325  386.608
-89.4819  -157.331  386.608
-97.1816  -162.473  386.608
-105.298  -167.075  386.608
-113.479  -171.584  386.608
-122.062  -175.113  386.608
-131.367  -176.325  386.608
-140.879  -174.657  386.608
-150.065  -172.347  386.608
-158.918  -168.931  386.608
-167.39  -164.139  386.608
-174.893  -157.997  386.608
-181.134  -150.581  386.608
-186.016  -142.129  386.608
-189.488  -133.062  386.608
-191.541  -123.571  386.608
-192.648  -114.004  386.608
-191.527  -104.322  386.608
-188.682  -95.0565  386.608
-184.214  -86.3047  386.608
-178.707  -78.2928  386.608
-171.959  -71.3831  386.608
-163.963  -65.5121  386.608
-155.373  -61.391  386.608
-146.091  -60.4347  386.608
-136.758  -59.7874  402.608
-126.041  -60.5381  402.608
-115.617  -63.2961  402.608
-105.609  -67.5002  402.608
-96.3339  -73.007  402.608
-87.9177  -79.6335  402.608
-80.4243  -87.1981  402.608
-74.6668  -96.1541  402.608
-70.5685  -105.909  402.608
-68.1805  -116.308  402.608
-69.244  -125.607  402.608
-72.1081  -134.487  402.608
-76.4625  -142.681  402.608
-82.5749  -149.6  402.608
-89.7652  -155.398  402.608
-97.46  -160.584  402.608
-105.486  -165.478  402.608
-113.962  -169.519  402.608
-122.648  -172.804  402.608
-131.813  -173.504  402.608
-141.024  -172.249  402.608
-150.136  -170.011  402.608
-158.777  -166.412  402.608
-166.712  -161.591  402.608
-173.813  -155.495  402.608
-179.664  -148.293  402.608
-184.22  -140.283  402.608
-187.838  -131.723  402.608
-189.561  -122.518  402.608
-190.308  -113.242  402.608
-189.406  -103.979  402.608
-187.472  -94.8753  402.608
-183.685  -86.4858  402.608
-177.703  -79.3272  402.608
-170.725  -73.4179  402.608
-162.724  -68.7642  402.608
-154.415  -64.6199  402.608
-145.933  -60.9267  402.608
-131.751  -57.3105  418.608
-121.38  -58.043  418.608
-111.505  -60.9785  418.608
-102.118  -65.2855  418.608
-93.3358  -70.7472  418.608
-85.4732  -77.3721  418.608
-78.9322  -85.2685  418.608
-73.7492  -94.1279  418.608
-69.8607  -103.608  418.608
-67.5337  -113.553  418.608
-68.622  -122.68  418.608
-71.5335  -131.354  418.608
-75.8164  -139.373  418.608
-81.5455  -146.47  418.608
-88.4313  -152.327  418.608
-95.9893  -157.428  418.608
-103.842  -162.377  418.608
-112.106  -166.447  418.608
-120.717  -169.471  418.608
-129.787  -170.749  418.608
-138.802  -169.392  418.608
-147.63  -166.937  418.608
-156.153  -163.478  418.608
-163.992  -158.79  418.608
-171.021  -152.899  418.608
-176.96  -145.893  418.608
-181.556  -137.925  418.608
-184.74  -129.262  418.608
-186.541  -120.341  418.608
-187.408  -111.541  418.608
-185.951  -102.113  418.608
-183.791  -92.8964  418.608
-179.771  -84.3926  418.608
-173.546  -77.072  418.608
-166.436  -70.9857  418.608
-158.471  -65.6624  418.608
-149.766  -61.5145  418.608
-140.979  -58.0574  418.608
-126.769  -52.7938  434.608
-116.928  -54.688  434.608
-107.386  -58.025  434.608
-98.2228  -62.3937  434.608
-89.7733  -67.9566  434.608
-82.1515  -74.5707  434.608
-75.5184  -82.0224  434.608
-70.4925  -90.7178  434.608
-67.1085  -100.199  434.608
-64.9754  -109.99  434.608
-66.3135  -118.966  434.608
-69.472  -127.375  434.608
-74.0856  -135.092  434.608
-79.6435  -142.207  434.608
-86.2921  -148.181  434.608
-93.6907  -153.359  434.608
-101.281  -158.392  434.608
-109.203  -162.717  434.608
-117.71  -165.734  434.608
-126.769  -166.726  434.608
-135.575  -165.29  434.608
-144.142  -162.802  434.608
-152.572  -160.059  434.608
-160.535  -155.919  434.608
-167.296  -150.095  434.608
-172.909  -143.043  434.608
-177.55  -135.27  434.608
-180.938  -126.873  434.608
-182.932  -118.038  434.608
-183.497  -109  434.608
-182.466  -99.378  434.608
-179.854  -90.0456  434.608
-175.255  -81.5487  434.608
-169.064  -74.1187  434.608
-162.052  -67.3215  434.608
-153.969  -61.8139  434.608
-145.407  -57.246  434.608
-136.456  -53.7934  434.608
-124.346  -45.9153  453.608
-114.063  -48.5132  453.608
-104.323  -52.963  453.608
-94.682  -58.25  453.608
-84.997  -63.1374  453.608
-75.2569  -67.3366  453.608
-66.3005  -72.995  453.608
-60.33  -81.9501  453.608
-57.1497  -92.4021  453.608
-56.6372  -103.237  453.608
-57.1396  -112.753  453.608
-60.13  -121.556  453.608
-66.1495  -128.772  453.608
-73.0156  -135.001  453.608
-80.1388  -140.868  453.608
-87.5735  -146.497  453.608
-95.4088  -151.644  453.608
-103.39  -156.424  453.608
-111.888  -160.128  453.608
-121.25  -161.076  453.608
-129.643  -159.925  453.608
-137.935  -158.303  453.608
-146.099  -156.382  453.608
-153.74  -152.911  453.608
-160.608  -147.943  453.608
-166.519  -141.783  453.608
-171.399  -134.754  453.608
-175.215  -127.103  453.608
-177.526  -118.947  453.608
-178.972  -110.519  453.608
-177.79  -100.407  453.608
-175.444  -90.4401  453.608
-171.361  -81.1052  453.608
-166.091  -72.2643  453.608
-160.231  -63.8559  453.608
-152.764  -56.9061  453.608
-144.129  -51.3138  453.608
-134.598  -47.5283  453.608
-121.682  -38.1623  472.608
-110.95  -41.4107  472.608
-101.006  -46.5694  472.608
-90.9975  -52.0844  472.608
-80.4956  -56.1523  472.608
-70.1248  -60.2483  472.608
-60.703  -66.6074  472.608
-53.7612  -75.515  472.608
-49.4105  -86.0466  472.608
-47.8822  -97.4239  472.608
-48.419  -107.286  472.608
-51.6713  -116.366  472.608
-57.7124  -124.061  472.608
-65.3225  -130.208  472.608
-73.5251  -135.442  472.608
-81.7022  -140.607  472.608
-89.7814  -146.052  472.608
-98.2818  -150.759  472.608
-106.885  -154.817  472.608
-116.291  -156.663  472.608
-124.45  -156.292  472.608
-132.501  -154.512  472.608
-140.314  -152.206  472.608
-147.785  -148.954  472.608
-154.487  -144.227  472.608
-160.332  -138.379  472.608
-165.424  -131.889  472.608
-169.737  -124.874  472.608
-172.417  -117.124  472.608
-173.76  -109.073  472.608
-172.707  -98.3838  472.608
-169.683  -88.1915  472.608
-165.153  -78.5521  472.608
-161.458  -68.5135  472.608
-157.99  -58.3732  472.608
-151.738  -49.9852  472.608
-142.561  -44.4584  472.608
-132.31  -40.5358  472.608
-118.019  -30.7365  497.691
-107.154  -33.8974  497.691
-96.8661  -38.8937  497.691
-87.2552  -45.0257  497.691
-77.6188  -51.2124  497.691
-67.7227  -56.9329  497.691
-58.3452  -63.1638  497.691
-50.5186  -71.2668  497.691
-45.1498  -81.1324  497.691
-42.8704  -92.1915  497.691
-43.9423  -101.899  497.691
-48.234  -110.466  497.691
-54.2797  -118.136  497.691
-61.5733  -124.275  497.691
-69.6152  -129.475  497.691
-77.7378  -134.779  497.691
-85.4175  -140.789  497.691
-93.2875  -146.465  497.691
-101.877  -150.834  497.691
-111.56  -152.146  497.691
-119.877  -151.466  497.691
-127.961  -149.613  497.691
-135.817  -146.99  497.691
-143.18  -143.035  497.691
-150.152  -138.462  497.691
-156.467  -133.119  497.691
-161.763  -126.709  497.691
-165.763  -119.379  497.691
-168.106  -111.511  497.691
-169.059  -103.368  497.691
-167.344  -92.3329  497.691
-165.408  -81.3037  497.691
-163.97  -70.2502  497.691
-161.869  -59.2603  497.691
-157.966  -48.9065  497.691
-150.193  -40.8719  497.691
-140.17  -35.7057  497.691
-129.272  -32.8257  497.691
-116.425  -27.2448  522.775
-104.698  -29.2964  522.775
-93.3791  -33.229  522.775
-82.4093  -37.9974  522.775
-71.611  -43.1074  522.775
-61.2476  -48.9071  522.775
-52.5096  -57.1048  522.775
-45.6576  -66.8759  522.775
-40.4009  -77.5749  522.775
-37.9251  -89.1857  522.775
-38.9342  -98.9251  522.775
-42.5947  -107.871  522.775
-48.0085  -115.911  522.775
-54.3482  -123.222  522.775
-61.5462  -129.632  522.775
-69.3761  -135.352  522.775
-77.438  -140.814  522.775
-85.5709  -146.063  522.775
-93.8723  -150.777  522.775
-103.308  -152.272  522.775
-111.785  -151.051  522.775
-120.326  -148.977  522.775
-128.809  -146.377  522.775
-136.506  -142.139  522.775
-143.769  -137.192  522.775
-150.534  -131.61  522.775
-156.417  -125.031  522.775
-161.073  -117.444  522.775
-164.498  -109.268  522.775
-165.468  -100.626  522.775
-164.382  -89.363  522.775
-163.798  -77.9348  522.775
-162.775  -66.7099  522.775
-160.741  -55.7046  522.775
-156.692  -45.5169  522.775
-148.457  -37.734  522.775
-138.274  -32.6687  522.775
-127.483  -29.3568  522.775
-107.458  -25.4162  547.858
-95.7292  -27.0062  547.858
-84.4347  -30.7868  547.858
-73.2928  -35.0746  547.858
-62.4841  -39.9483  547.858
-52.5388  -46.3337  547.858
-44.1573  -54.7566  547.858
-37.9863  -64.9187  547.858
-33.7213  -75.985  547.858
-32.2132  -87.7857  547.858
-33.0736  -98.0362  547.858
-36.3373  -107.632  547.858
-41.4707  -116.365  547.858
-47.7536  -124.328  547.858
-55.1707  -131.182  547.858
-63.4977  -136.966  547.858
-72.2477  -142.172  547.858
-81.0788  -147.233  547.858
-90.6344  -150.568  547.858
-100.903  -151.418  547.858
-110.014  -150.382  547.858
-118.84  -147.985  547.858
-127.611  -145.051  547.858
-135.358  -140.033  547.858
-142.547  -134.16  547.858
-149.117  -127.643  547.858
-154.712  -120.245  547.858
-159.052  -112.115  547.858
-161.738  -103.406  547.858
-162.358  -94.2448  547.858
-161.58  -83.0225  547.858
-160.285  -71.8589  547.858
-158.687  -60.8238  547.858
-155.468  -50.3093  547.858
-149.06  -41.106  547.858
-139.857  -34.4639  547.858
-129.519  -29.9666  547.858
-118.69  -26.9021  547.858
-100.627  -23.3233  572.941
-88.2575  -24.6137  572.941
-76.263  -27.5094  572.941
-64.6404  -31.6413  572.941
-53.5538  -37.1669  572.941
-43.6264  -44.5906  572.941
-35.5285  -53.9458  572.941
-29.7971  -65.0183  572.941
-26.5449  -77.1307  572.941
-25.4741  -89.6009  572.941
-26.531  -99.7956  572.941
-29.4404  -109.497  572.941
-34.3525  -118.299  572.941
-40.3706  -126.433  572.941
-47.6365  -133.358  572.941
-55.9708  -139.005  572.941
-64.9194  -143.74  572.941
-74.234  -147.853  572.941
-83.9108  -150.98  572.941
-93.9141  -151.714  572.941
-103.96  -151.124  572.941
-113.858  -148.588  572.941
-123.547  -145.34  572.941
-132.263  -140.143  572.941
-140.144  -133.584  572.941
-147.127  -126.121  572.941
-152.919  -117.774  572.941
-157.154  -108.346  572.941
-159.739  -98.5363  572.941
-160.502  -88.3142  572.941
-158.99  -77.3476  572.941
-156.775  -66.5007  572.941
-154.202  -55.9158  572.941
-149.778  -46.1471  572.941
-141.883  -38.1354  572.941
-132.523  -32.3149  572.941
-122.37  -28.1621  572.941
-111.653  -25.2225  572.941
-90.1783  -20.9167  598.025
-78.0847  -22.6938  598.025
-66.1896  -25.7575  598.025
-54.7036  -29.7956  598.025
-43.9751  -35.392  598.025
-34.3894  -42.8819  598.025
-26.4247  -52.019  598.025
-20.7084  -62.824  598.025
-17.308  -74.6043  598.025
-16.6602  -86.8379  598.025
-16.8403  -97.8279  598.025
-19.5927  -108.349  598.025
-24.8741  -117.834  598.025
-31.1103  -126.75  598.025
-38.7038  -134.468  598.025
-47.5575  -140.923  598.025
-57.1454  -146.238  598.025
-67.4678  -149.788  598.025
-78.1872  -152.487  598.025
-89.0276  -153.229  598.025
-99.0061  -151.897  598.025
-108.933  -149.909  598.025
-118.505  -146.957  598.025
-127.367  -142.231  598.025
-135.354  -136.044  598.025
-142.492  -128.927  598.025
-148.708  -121.082  598.025
-153.673  -112.34  598.025
-156.861  -102.827  598.025
-158.372  -92.9047  598.025
-157.706  -80.2986  598.025
-154.862  -68.1238  598.025
-151.146  -56.1329  598.025
-145.961  -44.8831  598.025
-137.055  -36.0696  598.025
-126.295  -29.6093  598.025
-114.643  -25.1876  598.025
-102.588  -22.2959  598.025
-85.0367  -17.495  623.108
-72.0543  -19.0286  623.108
-59.4893  -22.6516  623.108
-47.2883  -27.295  623.108
-35.9762  -33.6541  623.108
-25.7536  -41.6543  623.108
-16.9943  -51.3203  623.108
-11.4396  -63.0875  623.108
-8.04428  -75.8287  623.108
-6.91999  -88.8601  623.108
-8.40848  -100.073  623.108
-11.4311  -110.983  623.108
-16.1696  -121.029  623.108
-23.2645  -129.746  623.108
-31.6661  -137.17  623.108
-40.8733  -143.443  623.108
-50.9097  -148.602  623.108
-61.4729  -152.431  623.108
-72.5165  -154.851  623.108
-83.8379  -155.783  623.108
-94.8619  -154.859  623.108
-105.635  -152.43  623.108
-115.987  -148.809  623.108
-125.715  -143.775  623.108
-134.669  -137.52  623.108
-142.96  -130.408  623.108
-150.214  -122.293  623.108
-155.649  -112.772  623.108
-158.811  -102.312  623.108
-158.781  -91.4146  623.108
-157.672  -78.3153  623.108
-154.026  -65.8441  623.108
-149.341  -53.5082  623.108
-143.501  -41.7966  623.108
-134.096  -32.8865  623.108
-122.909  -26.2731  623.108
-110.788  -21.5884  623.108
-98.0334  -18.9273  623.108
-80.8132  -11.8909  648.191
-67.1369  -13.8414  648.191
-54.0102  -17.7753  648.191
-41.1871  -22.5571  648.191
-29.3472  -29.6654  648.191
-18.8179  -38.6483  648.191
-9.81012  -49.0543  648.191
-3.24929  -61.2294  648.191
0.381125  -74.6161  648.191
1.441  -88.4919  648.191
0.873954  -99.8862  648.191
-1.89275  -110.764  648.191
-7.53522  -120.68  648.191
-14.7803  -129.464  648.191
-23.2549  -137  648.191
-32.6405  -143.46  648.191
-42.6255  -148.997  648.191
-53.2216  -153.169  648.191
-64.3531  -155.993  648.191
-75.7387  -156.975  648.191
-87.6426  -156.826  648.191
-98.9877  -154.394  648.191
-109.949  -150.395  648.191
-120.802  -145.887  648.191
-130.741  -139.694  648.191
-139.959  -132.404  648.191
-148.062  -123.977  648.191
-153.931  -113.701  648.191
-156.925  -102.433  648.191
-157.596  -91.0755  648.191
-157.189  -76.9976  648.191
-153.468  -63.572  648.191
-148.908  -50.1412  648.191
-143.18  -37.4804  648.191
-133.369  -28.0895  648.191
-121.355  -20.9717  648.191
-108.405  -15.7352  648.191
-94.7478  -13.3372  648.191
-76.5551  -6.29701  673.275
-62.2628  -8.61307  673.275
-48.7359  -13.2557  673.275
-35.619  -19.2861  673.275
-23.3587  -27.1035  673.275
-12.3894  -36.4937  673.275
-2.96287  -47.2912  673.275
3.79291  -60.0903  673.275
7.59447  -74.1167  673.275
8.43654  -88.6402  673.275
7.17641  -100.289  673.275
3.02115  -111.448  673.275
-2.76082  -121.766  673.275
-10.591  -130.648  673.275
-19.5353  -138.407  673.275
-29.1591  -145.294  673.275
-39.5074  -151.237  673.275
-50.402  -155.831  673.275
-62.004  -158.67  673.275
-73.8847  -159.284  673.275
-85.3292  -158.209  673.275
-96.4408  -155.283  673.275
-107.381  -151.668  673.275
-117.918  -147.119  673.275
-127.345  -140.699  673.275
-136.31  -133.588  673.275
-144.612  -125.873  673.275
-150.994  -116.391  673.275
-154.787  -105.524  673.275
-155.988  -94.1416  673.275
-155.341  -79.1802  673.275
-152.548  -64.4858  673.275
-147.691  -50.2147  673.275
-141.052  -36.6673  673.275
-132.033  -25.2674  673.275
-119.714  -16.8145  673.275
-105.844  -11.1881  673.275
-91.3539  -8.18352  673.275
-71.2006  -1.72469  698.358
-56.3431  -4.16076  698.358
-42.1287  -9.32825  698.358
-28.8514  -16.5597  698.358
-16.654  -25.4776  698.358
-5.51837  -35.6506  698.358
3.94838  -47.231  698.358
10.9099  -60.5922  698.358
14.789  -75.1171  698.358
15.8585  -90.1384  698.358
14.4149  -102.403  698.358
9.60701  -113.312  698.358
1.90024  -122.904  698.358
-6.19906  -131.984  698.358
-15.2484  -140.237  698.358
-25.521  -147.057  698.358
-36.5999  -152.028  698.358
-48.427  -155.431  698.358
-60.3595  -158.571  698.358
-72.5759  -159.78  698.358
-83.8946  -159.332  698.358
-94.9382  -157.07  698.358
-105.576  -153.037  698.358
-115.728  -148.024  698.358
-124.919  -141.589  698.358
-133.696  -134.421  698.358
-141.642  -126.476  698.358
-147.47  -116.883  698.358
-151.901  -106.327  698.358
-153.335  -95.4705  698.358
-152.572  -79.6359  698.358
-150.42  -63.6804  698.358
-145.505  -48.3564  698.358
-138.846  -33.8218  698.358
-130.629  -20.5106  698.358
-117.934  -10.6478  698.358
-102.904  -5.90643  698.358
-87.2534  -3.43725  698.358
-72.6449  3.06078  723.441
-57.2339  0.998178  723.441
-42.3403  -3.65024  723.441
-28.4734  -10.813  723.441
-15.992  -20.305  723.441
-4.65213  -31.0602  723.441
5.66103  -42.5717  723.441
13.5217  -55.9278  723.441
18.3198  -70.6022  723.441
19.9385  -85.9374  723.441
18.5671  -98.78  723.441
14.8773  -111.378  723.441
8.84244  -122.709  723.441
-0.307867  -131.571  723.441
-10.2082  -139.914  723.441
-20.5303  -147.61  723.441
-32.2104  -153.215  723.441
-44.5221  -157.058  723.441
-57.0835  -160.181  723.441
-69.7356  -161.776  723.441
-81.6426  -160.974  723.441
-93.3025  -158.497  723.441
-104.559  -154.521  723.441
-115.058  -148.94  723.441
-124.52  -141.654  723.441
-133.352  -133.661  723.441
-141.155  -124.946  723.441
-146.723  -114.351  723.441
-150.782  -103.063  723.441
-151.349  -91.438  723.441
-150.586  -75.9725  723.441
-148.567  -60.3883  723.441
-143.607  -45.5145  723.441
-136.755  -31.5671  723.441
-128.507  -18.7068  723.441
-117.413  -7.85308  723.441
-103.59  -0.773392  723.441
-88.244  1.56404  723.441
-77.4556  7.55199  748.524
-60.8075  6.44661  748.524
-44.6977  2.13471  748.524
-29.4944  -4.84888  748.524
-15.8144  -14.463  748.524
-3.89507  -26.3334  748.524
6.78863  -39.2242  748.524
15.1669  -53.484  748.524
20.9512  -68.8928  748.524
23.2337  -85.1766  748.524
22.3212  -98.2109  748.524
17.8953  -110.464  748.524
11.0693  -121.864  748.524
2.64266  -131.869  748.524
-7.17293  -140.66  748.524
-18.1208  -148.074  748.524
-29.8962  -153.896  748.524
-42.3562  -158.555  748.524
-55.3092  -161.528  748.524
-68.323  -163.645  748.524
-80.6731  -162.888  748.524
-92.7548  -160.562  748.524
-104.356  -156.287  748.524
-115.202  -150.291  748.524
-124.797  -142.487  748.524
-133.603  -133.724  748.524
-141.383  -124.246  748.524
-146.792  -113.238  748.524
-150.414  -101.401  748.524
-150.992  -89.2099  748.524
-150.508  -74.1844  748.524
-148.21  -59.3909  748.524
-143.866  -44.9644  748.524
-137.187  -31.4336  748.524
-128.793  -19.0157  748.524
-119.26  -7.59676  748.524
-106.763  0.514009  748.524
-92.3109  4.96212  748.524
-70.3949  11.1421  773.608
-54.0076  9.24175  773.608
-38.4066  3.72017  773.608
-23.8482  -4.12993  773.608
-10.6299  -14.2639  773.608
0.884266  -26.2101  773.608
9.80234  -40.295  773.608
17.314  -54.6098  773.608
22.6483  -69.3899  773.608
25.8515  -85.4125  773.608
24.5712  -99.0583  773.608
19.5136  -112.019  773.608
11.6779  -123.255  773.608
2.15902  -132.793  773.608
-8.16663  -141.594  773.608
-19.2969  -149.865  773.608
-31.619  -156.54  773.608
-44.8249  -159.825  773.608
-58.1125  -161.764  773.608
-71.793  -162.844  773.608
-85.1263  -161.493  773.608
-98.2408  -158.718  773.608
-110.711  -154.652  773.608
-121.875  -147.407  773.608
-132.034  -138.404  773.608
-140.898  -128.568  773.608
-147.96  -117.614  773.608
-152.719  -104.747  773.608
-154.45  -91.9569  773.608
-154.833  -78.7899  773.608
-152.484  -63.8227  773.608
-148.795  -48.8866  773.608
-142.171  -34.9088  773.608
-134.334  -21.7058  773.608
-126.236  -9.75433  773.608
-114.336  -1.80466  773.608
-100.461  4.6894  773.608
-85.765  9.33648  773.608
