-107.058000 -91.377000 105.802000
-117.171000 -91.738200 124.608000
-117.842000 -91.172300 165.608000
-130.049000 -83.641700 206.608000
-129.516000 -79.943400 247.608000
-137.709000 -70.341800 288.608000
-141.799000 -62.723500 329.608000
-136.030000 -60.489300 370.608000
-136.435000 -60.243900 386.608000
-136.758000 -59.787400 402.608000
-131.751000 -57.310500 418.608000
-126.769000 -52.793800 434.608000
-124.346000 -45.915300 453.608000
-121.682000 -38.162300 472.608000
-118.019000 -30.736500 497.691000
-116.425000 -27.244800 522.775000
-107.458000 -25.416200 547.858000
-100.627000 -23.323300 572.941000
-90.178300 -20.916700 598.025000
-85.036700 -17.495000 623.108000
-80.813200 -11.890900 648.191000
-76.555100 -6.297010 673.275000
-71.200600 -1.724690 698.358000
-72.644900 3.060780 723.441000
-77.455600 7.551990 748.524000
s
-74.516200 -122.927000 105.802000
-80.213400 -124.110000 124.608000
-82.805900 -129.210000 165.608000
-82.995600 -126.850000 206.608000
-79.110100 -126.993000 247.608000
-75.378500 -123.567000 288.608000
-71.093200 -121.517000 329.608000
-68.514600 -119.029000 370.608000
-67.369300 -118.218000 386.608000
-68.180500 -116.308000 402.608000
-67.533700 -113.553000 418.608000
-64.975400 -109.990000 434.608000
-56.637200 -103.237000 453.608000
-47.882200 -97.423900 472.608000
-42.870400 -92.191500 497.691000
-37.925100 -89.185700 522.775000
-32.213200 -87.785700 547.858000
-25.474100 -89.600900 572.941000
-16.660200 -86.837900 598.025000
-6.919990 -88.860100 623.108000
1.441000 -88.491900 648.191000
8.436540 -88.640200 673.275000
15.858500 -90.138400 698.358000
19.938500 -85.937400 723.441000
23.233700 -85.176600 748.524000
s
-120.797000 -162.591000 105.802000
-118.786000 -159.200000 124.608000
-119.334000 -163.341000 165.608000
-121.679000 -168.265000 206.608000
-123.833000 -172.268000 247.608000
-130.311000 -175.215000 288.608000
-131.674000 -178.442000 329.608000
-131.926000 -178.028000 370.608000
-131.367000 -176.325000 386.608000
-131.813000 -173.504000 402.608000
-129.787000 -170.749000 418.608000
-126.769000 -166.726000 434.608000
-121.250000 -161.076000 453.608000
-116.291000 -156.663000 472.608000
-111.560000 -152.146000 497.691000
-103.308000 -152.272000 522.775000
-100.903000 -151.418000 547.858000
-93.914100 -151.714000 572.941000
-89.027600 -153.229000 598.025000
-83.837900 -155.783000 623.108000
-75.738700 -156.975000 648.191000
-73.884700 -159.284000 673.275000
-72.575900 -159.780000 698.358000
-69.735600 -161.776000 723.441000
-68.323000 -163.645000 748.524000
s
-166.924000 -109.248000 105.802000
-171.145000 -118.187000 124.608000
-171.717000 -116.552000 165.608000
-175.868000 -119.581000 206.608000
-179.124000 -122.686000 247.608000
-185.503000 -119.834000 288.608000
-192.752000 -117.364000 329.608000
-194.253000 -114.815000 370.608000
-192.648000 -114.004000 386.608000
-190.308000 -113.242000 402.608000
-187.408000 -111.541000 418.608000
-183.497000 -109.000000 434.608000
-178.972000 -110.519000 453.608000
-173.760000 -109.073000 472.608000
-169.059000 -103.368000 497.691000
-165.468000 -100.626000 522.775000
-162.358000 -94.244800 547.858000
-160.502000 -88.314200 572.941000
-158.372000 -92.904700 598.025000
-158.781000 -91.414600 623.108000
-157.596000 -91.075500 648.191000
-155.988000 -94.141600 673.275000
-153.335000 -95.470500 698.358000
-151.349000 -91.438000 723.441000
-150.992000 -89.209900 748.524000
s
