-92.032068 -154.343070 1254.610000
-91.940736 -152.194984 1253.610000
-92.074099 -153.818634 1252.610000
-91.998305 -152.154834 1251.610000
-92.088868 -153.292357 1250.610000
-92.003022 -151.685576 1249.610000
-92.077113 -152.763362 1248.610000
-92.061238 -152.493411 1247.610000
-92.055820 -152.492740 1246.610000
-91.936040 -150.746313 1245.610000
-91.918326 -150.743890 1244.610000
-91.876047 -150.441004 1243.610000
-91.890330 -151.151713 1242.610000
-91.795239 -150.179277 1241.610000
-91.780256 -150.605124 1240.610000
-91.716226 -150.318515 1239.610000
-91.662980 -150.301320 1238.610000
-91.573844 -149.783455 1237.610000
-91.458069 -148.900641 1236.610000
-91.409507 -149.231723 1235.610000
-91.312408 -148.826495 1234.610000
-91.224649 -148.676857 1233.610000
-91.101750 -147.999597 1232.610000
-91.027194 -148.244432 1231.610000
-90.911142 -147.839019 1230.610000
-90.797149 -147.569078 1229.610000
-90.664027 -147.024863 1228.610000
-90.570224 -147.277672 1227.610000
-90.430780 -146.772936 1226.610000
-90.295649 -146.431467 1225.610000
-90.176418 -146.466825 1224.610000
-90.050441 -146.452622 1223.610000
-89.906417 -146.177573 1222.610000
-89.741979 -145.551542 1221.610000
-89.604839 -145.563460 1220.610000
-89.462013 -145.542615 1219.610000
-89.299404 -145.200287 1218.610000
-89.121111 -144.568942 1217.610000
-88.976125 -144.747270 1216.610000
-88.819225 -144.750542 1215.610000
-88.636944 -144.249947 1214.610000
-88.448230 -143.648285 1213.610000
-88.259048 -143.108287 1212.610000
-88.084299 -142.985387 1211.610000
-87.902159 -142.755833 1210.610000
-87.716005 -142.502050 1209.610000
-87.526046 -142.219591 1208.610000
-87.336216 -142.019027 1207.610000
-87.143255 -141.800369 1206.610000
-86.948815 -141.615313 1205.610000
-86.755916 -141.561702 1204.610000
-86.557327 -141.420574 1203.610000
-86.348917 -141.017288 1202.610000
-86.145398 -140.863976 1201.610000
-85.933153 -140.467668 1200.610000
-85.728406 -140.445412 1199.610000
-85.517300 -140.267472 1198.610000
-85.301712 -139.949863 1197.610000
-85.088213 -139.848351 1196.610000
-84.870480 -139.619143 1195.610000
-84.647999 -139.237085 1194.610000
-84.423185 -138.765362 1193.610000
-84.201042 -138.501137 1192.610000
-83.977197 -138.292394 1191.610000
-83.752669 -138.154735 1190.610000
-83.527475 -138.079801 1189.610000
-83.300699 -138.071402 1188.610000
-83.070807 -138.048620 1187.610000
-82.842192 -138.485346 1186.610000
-82.611447 -138.893098 1185.610000
-82.378129 -138.887410 1184.610000
-82.141364 -138.391507 1183.610000
-81.904201 -138.054700 1182.610000
-81.666240 -137.785531 1181.610000
-81.428113 -137.303495 1180.610000
-81.190791 -136.997196 1179.610000
-80.949904 -136.965563 1178.610000
-80.708369 -136.911462 1177.610000
-80.466599 -136.780104 1176.610000
-80.224657 -136.572527 1175.610000
-79.983389 -136.266208 1174.610000
-79.738594 -136.203523 1173.610000
-79.492939 -136.151279 1172.610000
-79.253191 -135.758515 1171.610000
-79.013382 -135.392756 1170.610000
-78.772584 -135.086009 1169.610000
-78.526149 -135.014350 1168.610000
-78.283291 -134.794273 1167.610000
-78.038634 -134.640045 1166.610000
-77.806656 -134.077789 1165.610000
-77.573610 -133.593719 1164.610000
-77.336641 -133.261992 1163.610000
-77.087561 -133.283924 1162.610000
-76.842212 -133.198487 1161.610000
-76.598593 -133.072545 1160.610000
-76.351534 -133.033733 1159.610000
-76.108220 -132.910331 1158.610000
-75.888076 -132.289074 1157.610000
-75.660830 -131.855960 1156.610000
-75.428040 -131.571051 1155.610000
-75.193364 -131.333708 1154.610000
-74.951381 -131.265633 1153.610000
-74.726406 -130.891262 1152.610000
-74.498483 -130.597649 1151.610000
-74.276917 -130.217593 1150.610000
-74.058676 -129.808571 1149.610000
-73.844985 -129.352755 1148.610000
-73.623756 -129.054749 1147.610000
-73.392274 -128.942899 1146.610000
-73.142498 -129.128993 1145.610000
-72.914641 -128.984314 1144.610000
-72.695475 -128.735976 1143.610000
-72.490971 -128.308625 1142.610000
-72.299020 -127.740674 1141.610000
-72.102577 -127.253980 1140.610000
-71.877454 -127.187890 1139.610000
-71.659409 -127.051463 1138.610000
-71.450136 -126.823231 1137.610000
-71.243143 -126.589147 1136.610000
-71.033044 -126.419618 1135.610000
-70.849236 -125.963968 1134.610000
-70.685222 -125.303798 1133.610000
-70.499859 -124.919753 1132.610000
-70.280731 -124.943098 1131.610000
-70.079200 -124.786858 1130.610000
-69.902445 -124.412698 1129.610000
-69.704669 -124.273153 1128.610000
-69.553629 -123.669803 1127.610000
-69.362806 -123.511681 1126.610000
-69.188887 -123.207514 1125.610000
-69.018838 -122.885692 1124.610000
-68.802816 -123.037542 1123.610000
-68.601915 -123.066948 1122.610000
-68.444907 -122.697926 1121.610000
-68.325782 -121.999653 1120.610000
-68.146718 -121.891943 1119.610000
-67.959724 -121.881351 1118.610000
-67.784878 -121.776127 1117.610000
-67.605674 -121.739618 1116.610000
-67.445116 -121.562896 1115.610000
-67.274473 -121.490820 1114.610000
-67.091838 -121.543628 1113.610000
-66.929595 -121.442748 1112.610000
-66.767772 -121.370408 1111.610000
-66.628107 -121.137243 1110.610000
-66.476500 -121.023224 1109.610000
-66.336877 -120.839236 1108.610000
-66.189026 -120.744419 1107.610000
-66.025598 -120.799637 1106.610000
-65.889646 -120.658726 1105.610000
-65.741236 -120.640805 1104.610000
-65.600384 -120.586401 1103.610000
-65.465282 -120.514856 1102.610000
-65.330482 -120.464978 1101.610000
-65.199248 -120.411902 1100.610000
-65.073343 -120.342914 1099.610000
-64.942610 -120.336477 1098.610000
-64.823937 -120.268291 1097.610000
-64.692344 -120.314142 1096.610000
-64.584657 -120.215530 1095.610000
-64.449354 -120.336674 1094.610000
-64.326102 -120.395746 1093.610000
-64.188534 -120.579120 1092.610000
-63.995488 -121.176774 1091.610000
-63.882113 -121.226584 1090.610000
-63.804487 -121.047007 1089.610000
-63.725970 -120.895339 1088.610000
-63.640112 -120.821380 1087.610000
-63.550868 -120.790257 1086.610000
-63.460324 -120.789818 1085.610000
-63.330094 -121.075595 1084.610000
-63.225351 -121.217146 1083.610000
-63.140124 -121.239226 1082.610000
-63.048084 -121.326580 1081.610000
-62.927223 -121.627094 1080.610000
-62.851320 -121.644831 1079.610000
-62.771109 -121.708768 1078.610000
-62.714885 -121.630655 1077.610000
-62.632566 -121.743584 1076.610000
-62.554288 -121.848414 1075.610000
-62.435028 -122.246324 1074.610000
-62.369816 -122.301289 1073.610000
-62.322332 -122.257419 1072.610000
-62.274306 -122.233065 1071.610000
-62.234565 -122.169552 1070.610000
-62.170798 -122.278957 1069.610000
-62.091331 -122.503900 1068.610000
-62.033854 -122.608569 1067.610000
-61.961874 -122.829031 1066.610000
-61.913640 -122.903168 1065.610000
-61.860075 -123.031643 1064.610000
-61.811778 -123.141415 1063.610000
-61.741702 -123.405219 1062.610000
-61.715543 -123.401193 1061.610000
-61.705172 -123.310450 1060.610000
-61.711051 -123.127714 1059.610000
-61.679867 -123.200693 1058.610000
-61.643832 -123.321305 1057.610000
-61.617800 -123.392567 1056.610000
-61.609461 -123.361781 1055.610000
-61.595464 -123.382073 1054.610000
-61.583047 -123.406959 1053.610000
-61.569941 -123.451645 1052.610000
-61.572792 -123.403776 1051.610000
-61.596309 -123.241001 1050.610000
-61.639986 -122.964056 1049.610000
-61.642377 -122.960431 1048.610000
-61.652785 -122.918846 1047.610000
-61.666532 -122.867994 1046.610000
-61.717463 -122.589388 1045.610000
-61.727378 -122.587273 1044.610000
-61.727225 -122.664869 1043.610000
-61.769797 -122.480998 1042.610000
-61.858706 -122.006326 1041.610000
-61.875306 -122.007583 1040.610000
-61.893468 -122.010078 1039.610000
-61.901806 -122.086074 1038.610000
-61.791538 -122.934712 1037.610000
-61.724404 -123.517084 1036.610000
-61.661390 -124.082740 1035.610000
-61.656251 -124.292879 1034.610000
-61.661648 -124.441839 1033.610000
-61.693015 -124.435752 1032.610000
-61.791280 -124.007365 1031.610000
-61.869080 -123.721436 1030.610000
-61.892291 -123.798920 1029.610000
-61.894375 -124.019321 1028.610000
-61.922611 -124.082396 1027.610000
-61.945796 -124.184688 1026.610000
-61.946147 -124.443749 1025.610000
-61.919706 -124.891646 1024.610000
-61.895415 -125.336041 1023.610000
-61.869042 -125.803083 1022.610000
-61.845401 -126.267195 1021.610000
-61.861012 -126.478780 1020.610000
-61.884776 -126.645527 1019.610000
-61.913932 -126.783353 1018.610000
-61.949061 -126.890918 1017.610000
-61.971644 -127.090381 1016.610000
-62.001406 -127.249025 1015.610000
-61.951658 -127.948518 1014.610000
-61.984669 -128.103241 1013.610000
-62.012918 -128.295143 1012.610000
-62.012922 -128.685523 1011.610000
-62.014763 -129.073223 1010.610000
-62.027257 -129.398467 1009.610000
-62.050720 -129.654088 1008.610000
-62.094963 -129.780994 1007.610000
-62.127131 -129.993405 1006.610000
-62.144969 -130.308434 1005.610000
-62.137841 -130.804710 1004.610000
-62.180075 -130.971289 1003.610000
-62.205444 -131.251596 1002.610000
-62.218446 -131.633784 1001.610000
-62.206390 -132.199213 1000.610000
-62.242251 -132.432395 999.610000
-62.297518 -132.534420 998.610000
-62.297997 -133.030171 997.610000
-62.333537 -133.280795 996.610000
-62.347165 -133.693616 995.610000
-62.386778 -133.927513 994.610000
-62.408147 -134.295406 993.610000
-62.443497 -134.570770 992.610000
-62.483871 -134.811256 991.610000
-62.521164 -135.074684 990.610000
-62.542151 -135.471956 989.610000
-62.561455 -135.885419 988.610000
-62.617741 -136.031647 987.610000
-62.656539 -136.304066 986.610000
-62.698005 -136.559772 985.610000
-62.722345 -136.952060 984.610000
-62.755259 -137.282861 983.610000
-62.782673 -137.656141 982.610000
-62.807965 -138.048520 981.610000
-62.841536 -138.381612 980.610000
-62.904198 -138.496092 979.610000
-62.953458 -138.713433 978.610000
-63.004141 -138.919407 977.610000
-63.055937 -139.119813 976.610000
-63.088613 -139.464593 975.610000
-63.147846 -139.610771 974.610000
-63.217703 -139.670477 973.610000
-63.237820 -140.125678 972.610000
-63.269525 -140.479816 971.610000
-63.315644 -140.724995 970.610000
-63.373246 -140.875463 969.610000
-63.427870 -141.049399 968.610000
-63.483704 -141.208757 967.610000
-63.546209 -141.317308 966.610000
-63.600575 -141.484094 965.610000
-63.625230 -141.895110 964.610000
-63.636690 -142.407740 963.610000
-63.684436 -142.624245 962.610000
-63.739512 -142.776135 961.610000
-63.808269 -142.813910 960.610000
-63.879735 -142.823030 959.610000
-63.948820 -142.845689 958.610000
-64.004531 -142.972534 957.610000
-64.049196 -143.188788 956.610000
-64.100463 -143.345554 955.610000
-64.122919 -143.728514 954.610000
-64.181039 -143.812175 953.610000
-64.213854 -144.105496 952.610000
-64.275199 -144.147914 951.610000
-64.328164 -144.254150 950.610000
-64.391105 -144.266531 949.610000
-64.446925 -144.330195 948.610000
-64.468402 -144.680374 947.610000
-64.510009 -144.852884 946.610000
-64.550882 -145.020354 945.610000
-64.596975 -145.129958 944.610000
-64.622960 -145.408760 943.610000
-64.676320 -145.437589 942.610000
-64.753927 -145.241923 941.610000
-64.745883 -145.786832 940.610000
-64.789345 -145.870966 939.610000
-64.837463 -145.902019 938.610000
-64.879811 -145.972556 937.610000
-64.896271 -146.263744 936.610000
-64.928850 -146.403858 935.610000
-64.970211 -146.458693 934.610000
-65.030249 -146.334594 933.610000
-65.086644 -146.233958 932.610000
-65.098186 -146.524268 931.610000
-65.138918 -146.543426 930.610000
-65.180405 -146.547199 929.610000
-65.220077 -146.556648 928.610000
-65.250660 -146.642101 927.610000
-65.277331 -146.754828 926.610000
-65.295036 -146.943196 925.610000
-65.329760 -146.975143 924.610000
-65.343188 -147.188643 923.610000
-65.385962 -147.127703 922.610000
-65.416251 -147.163673 921.610000
-65.451291 -147.155716 920.610000
-65.482817 -147.174094 919.610000
-65.506144 -147.261599 918.610000
-65.536480 -147.277351 917.610000
-65.559295 -147.358224 916.610000
-65.545736 -147.773027 915.610000
-65.564250 -147.885028 914.610000
-65.558600 -148.217457 913.610000
-65.587477 -148.221014 912.610000
-65.617353 -148.209043 911.610000
-65.651339 -148.155075 910.610000
-65.673028 -148.212004 909.610000
-65.690913 -148.301845 908.610000
-65.700103 -148.470257 907.610000
-65.726120 -148.475321 906.610000
-65.739480 -148.597426 905.610000
-65.764806 -148.602447 904.610000
-65.788522 -148.620655 903.610000
-65.743522 -149.291833 902.610000
-65.734520 -149.617200 901.610000
-65.773143 -149.486715 900.610000
-65.797559 -149.489313 899.610000
-65.780970 -149.881602 898.610000
-65.766353 -150.255868 897.610000
-65.789943 -150.263776 896.610000
-65.808526 -150.322359 895.610000
-65.835023 -150.300230 894.610000
-65.861543 -150.277650 893.610000
-65.877321 -150.360409 892.610000
-65.870163 -150.664701 891.610000
-65.852905 -151.068060 890.610000
-65.865932 -151.176017 889.610000
-65.889984 -151.179464 888.610000
-65.915316 -151.171550 887.610000
-65.946830 -151.104654 886.610000
-65.969210 -151.130611 885.610000
-65.988837 -151.185183 884.610000
-65.955713 -151.750998 883.610000
-65.953007 -152.040080 882.610000
-65.975499 -152.076354 881.610000
-65.997800 -152.115260 880.610000
-66.019129 -152.166741 879.610000
-66.036438 -152.261048 878.610000
-66.060952 -152.287160 877.610000
-66.089446 -152.280706 876.610000
-66.122972 -152.230966 875.610000
-66.142527 -152.325829 874.610000
-66.165974 -152.383752 873.610000
-66.193679 -152.404777 872.610000
-66.219789 -152.445981 871.610000
-66.233661 -152.615543 870.610000
-66.220521 -153.064896 869.610000
-66.190852 -153.694265 868.610000
-66.186206 -154.082156 867.610000
-66.192373 -154.368542 866.610000
-66.220199 -154.439316 865.610000
-66.248675 -154.511247 864.610000
-66.271000 -154.650632 863.610000
-66.260684 -155.139388 862.610000
-66.243793 -155.700858 861.610000
-66.240852 -156.139927 860.610000
-66.271015 -156.245649 859.610000
-66.276718 -156.613928 858.610000
-66.327690 -156.522303 857.610000
-66.373311 -156.496906 856.610000
-66.434298 -156.321904 855.610000
-66.526334 -155.832063 854.610000
-66.556812 -155.991798 853.610000
-66.669728 -155.305277 852.610000
-66.712979 -155.357123 851.610000
-66.762104 -155.360079 850.610000
-66.800941 -155.483204 849.610000
-66.854592 -155.463259 848.610000
-66.896438 -155.581872 847.610000
-66.950826 -155.581726 846.610000
-66.985717 -155.808471 845.610000
-67.036189 -155.878811 844.610000
-67.073976 -156.100669 843.610000
-67.107205 -156.397985 842.610000
-67.139989 -156.707407 841.610000
-67.174010 -157.028336 840.610000
-67.204994 -157.399093 839.610000
-67.255205 -157.579078 838.610000
-67.303482 -157.786430 837.610000
-67.371494 -157.806523 836.610000
-67.449475 -157.735375 835.610000
-67.522431 -157.736547 834.610000
-67.578742 -157.941921 833.610000
-67.621552 -158.325048 832.610000
-67.678970 -158.562298 831.610000
-67.738090 -158.804999 830.610000
-67.748184 -159.632518 829.610000
-67.857603 -159.338522 828.610000
-67.952237 -159.234132 827.610000
-68.042271 -159.201610 826.610000
-68.120198 -159.341122 825.610000
-68.178489 -159.760865 824.610000
-68.234417 -160.198268 823.610000
-68.314237 -160.389635 822.610000
-68.353192 -161.105943 821.610000
-68.430881 -161.372570 820.610000
-68.514880 -161.613648 819.610000
-68.625802 -161.545588 818.610000
-68.729773 -161.582235 817.610000
-68.840014 -161.571247 816.610000
-68.950275 -161.584032 815.610000
-69.047088 -161.796417 814.610000
-69.163801 -161.782611 813.610000
-69.279544 -161.820004 812.610000
-69.398400 -161.846543 811.610000
-69.509873 -162.008332 810.610000
-69.614576 -162.295389 809.610000
-69.712188 -162.709645 808.610000
-69.854158 -162.559328 807.610000
-70.000190 -162.383841 806.610000
-72.672537 -162.585602 786.572000
