-48.1191  307.369  840.803
-48.6503  306.963  840.602
-49.1816  306.556  840.401
-49.5054  306.027  840.241
-49.8293  305.499  840.081
-50.1532  304.97  839.921
-50.477  304.442  839.761
-50.8009  303.913  839.6
-51.1248  303.384  839.44
-51.4486  302.856  839.28
-51.7725  302.327  839.12
-52.0964  301.799  838.96
-52.4202  301.27  838.799
-52.7441  300.741  838.639
-53.068  300.213  838.479
-53.3918  299.684  838.319
-53.7157  299.156  838.159
-54.0396  298.627  837.998
-54.3635  298.098  837.838
-54.5153  297.513  837.717
-54.6671  296.927  837.597
-54.819  296.341  837.476
-54.9708  295.756  837.355
-55.1227  295.17  837.235
-55.2745  294.584  837.114
-55.4263  293.999  836.993
-55.5782  293.413  836.873
-55.7877  292.594  836.705
-55.9973  291.775  836.537
-56.0721  291.283  836.45
-56.1468  290.792  836.363
-56.2216  290.3  836.276
-56.2964  289.808  836.189
-56.3608  289.144  836.082
-56.4251  288.48  835.975
-56.4201  287.65  835.864
-56.415  286.819  835.753
-56.3041  286.201  835.7
-56.1931  285.582  835.647
-56.0822  284.963  835.594
-55.9713  284.345  835.541
-55.8603  283.726  835.488
-55.7494  283.107  835.435
-55.6384  282.489  835.382
-55.5275  281.87  835.329
-55.2322  281.423  835.35
-54.9369  280.976  835.37
-54.6416  280.529  835.391
-54.3464  280.082  835.412
-54.0511  279.635  835.433
-53.7558  279.188  835.453
-53.4605  278.742  835.474
-53.1652  278.295  835.495
-53.065  278.156  835.504
-52.6296  277.76  835.57
-52.1943  277.364  835.636
-51.7589  276.968  835.702
-51.3236  276.571  835.768
-50.8882  276.175  835.834
-50.4528  275.779  835.9
-50.0175  275.383  835.966
-49.5821  274.987  836.032
-49.1468  274.591  836.098
-48.7114  274.195  836.164
-48.2761  273.799  836.23
-47.8407  273.402  836.296
-47.4053  273.006  836.362
-46.97  272.61  836.428
-46.5346  272.214  836.494
-46.0993  271.818  836.56
-45.6634  271.422  836.626
-45.2275  271.027  836.693
-44.7916  270.631  836.759
-44.3558  270.236  836.825
-43.9199  269.84  836.891
-43.484  269.445  836.958
-43.0481  269.049  837.024
-42.6123  268.653  837.09
-42.1764  268.258  837.156
-41.7405  267.862  837.223
-41.3046  267.467  837.289
-40.8687  267.071  837.355
-40.4329  266.676  837.421
-39.997  266.28  837.488
-39.5611  265.884  837.554
-39.1252  265.489  837.62
-38.5623  265.021  837.712
-37.9994  264.553  837.803
-37.4365  264.085  837.894
-36.8736  263.617  837.986
-36.3106  263.149  838.077
-35.7477  262.681  838.168
-35.1848  262.213  838.26
-34.6219  261.745  838.351
-34.1897  261.498  838.436
-33.7574  261.252  838.522
-33.3252  261.006  838.607
-32.893  260.76  838.692
-32.4608  260.513  838.778
-32.0285  260.267  838.863
-31.5963  260.021  838.949
-31.1641  259.774  839.034
-30.5617  259.514  839.164
-29.9594  259.254  839.294
-29.357  258.993  839.424
-28.7547  258.733  839.555
-28.1523  258.473  839.685
-27.55  258.212  839.815
-26.9476  257.952  839.945
-26.3453  257.691  840.075
-25.7936  257.889  840.253
-25.2419  258.086  840.432
-24.6903  258.284  840.61
-24.1386  258.481  840.788
-23.5869  258.678  840.966
-23.0352  258.876  841.144
-22.4836  259.073  841.322
-21.9319  259.27  841.5
-21.3802  259.468  841.678
-20.8285  259.665  841.856
-20.2769  259.862  842.034
-19.7252  260.06  842.212
-19.1735  260.257  842.39
-18.6218  260.454  842.568
-18.0702  260.652  842.746
-17.5185  260.849  842.924
-16.9668  261.047  843.102
-16.4151  261.244  843.28
-15.8635  261.441  843.458
-15.3118  261.639  843.636
-14.7601  261.836  843.814
-14.2085  262.033  843.992
-13.6568  262.231  844.17
-13.1051  262.428  844.348
-12.5534  262.625  844.526
-12.0018  262.823  844.704
-11.4501  263.02  844.882
-10.8984  263.218  845.06
-10.3467  263.415  845.238
-9.79505  263.612  845.417
-9.24338  263.81  845.594
-8.6917  264.007  845.773
-8.21466  264.455  845.964
-7.73761  264.904  846.155
-7.26057  265.352  846.347
-6.78352  265.801  846.538
-6.30648  266.249  846.73
-5.82943  266.697  846.921
-5.35238  267.146  847.113
-4.87534  267.594  847.304
-4.66897  268.51  847.484
-4.46261  269.425  847.664
-4.39192  269.924  847.751
-4.32124  270.423  847.838
-4.25055  270.921  847.924
-4.17986  271.42  848.011
-4.10917  271.919  848.098
-4.03849  272.418  848.185
-3.9678  272.917  848.271
-3.89711  273.415  848.358
-3.87885  274.237  848.474
-3.86059  275.058  848.59
-3.84233  275.879  848.705
-3.82407  276.7  848.821
-3.9196  277.41  848.891
-4.01514  278.12  848.96
-4.11067  278.831  849.03
-4.20621  279.541  849.1
-4.34515  280.473  849.187
-4.4841  281.406  849.275
-4.62305  282.339  849.363
-4.762  283.272  849.451
-4.95525  284.004  849.496
-5.1485  284.735  849.542
s
3.56302  280.073  829.908
3.49778  281.015  829.979
3.3843  281.505  830.002
3.27082  281.994  830.025
3.15734  282.484  830.048
3.04386  282.974  830.071
2.93038  283.464  830.094
2.8169  283.954  830.116
2.70342  284.443  830.139
2.58995  284.933  830.162
2.51206  285.266  830.177
2.20369  286.165  830.201
1.89531  287.064  830.225
1.58992  287.856  830.24
1.28454  288.648  830.255
0.979149  289.44  830.271
0.673761  290.232  830.286
0.368373  291.023  830.301
0.0629855  291.815  830.316
-0.242402  292.607  830.331
-0.54779  293.399  830.346
-0.851756  293.823  830.329
-1.15572  294.247  830.312
-1.45969  294.672  830.294
-1.76365  295.096  830.277
-2.06762  295.52  830.26
-2.37159  295.945  830.243
-2.67555  296.369  830.226
-2.97952  296.793  830.209
-3.52559  297.555  830.178
-4.07167  298.317  830.147
-4.52443  298.899  830.118
-4.9772  299.481  830.088
-5.42997  300.063  830.058
-5.88274  300.645  830.028
-6.33551  301.227  829.998
-6.78828  301.809  829.968
-7.24104  302.391  829.938
-7.69381  302.973  829.908
-8.28878  303.353  829.835
-8.88376  303.734  829.762
-9.47873  304.115  829.689
-10.0737  304.495  829.616
-10.6687  304.876  829.543
-11.2636  305.257  829.47
-11.8586  305.637  829.396
-12.4536  306.018  829.323
-13.0486  306.398  829.25
-13.6435  306.779  829.177
-14.2385  307.16  829.104
-14.8335  307.54  829.031
-15.4284  307.921  828.958
-16.0234  308.302  828.885
-16.6184  308.682  828.811
-17.2134  309.063  828.738
-18.137  309.391  828.602
-19.0607  309.719  828.465
-19.9844  310.047  828.328
-20.908  310.375  828.192
-21.8317  310.703  828.055
-22.7554  311.031  827.918
-23.679  311.36  827.781
-24.6027  311.688  827.645
-25.4028  311.942  827.524
-26.2029  312.196  827.403
-27.003  312.45  827.281
-27.8031  312.703  827.16
-28.6033  312.957  827.039
-29.4034  313.211  826.918
-30.2035  313.465  826.797
-31.0036  313.719  826.676
-31.5531  313.889  826.592
-32.1026  314.058  826.509
-32.8505  314.048  826.374
-33.5985  314.039  826.239
-34.3786  314.005  826.096
-35.1587  313.97  825.953
-35.6542  313.854  825.854
-36.1497  313.738  825.755
-36.6451  313.622  825.656
-37.1406  313.505  825.557
-37.9344  313.252  825.392
-38.7281  312.999  825.227
-39.5219  312.745  825.063
-40.3156  312.492  824.898
-41.1093  312.239  824.734
-41.9031  311.985  824.569
-42.6968  311.732  824.404
-43.4906  311.479  824.24
-44.1234  311.229  824.104
-44.7563  310.979  823.969
-45.3892  310.73  823.833
-46.022  310.48  823.698
-46.6549  310.23  823.562
-47.2877  309.981  823.427
-47.9206  309.731  823.291
-48.5535  309.481  823.156
-49.1522  308.798  822.988
-49.7509  308.115  822.82
-50.3497  307.432  822.653
-50.9484  306.749  822.485
-51.2783  306.162  822.374
-51.6081  305.576  822.264
-51.938  304.99  822.153
-52.2678  304.403  822.042
-52.5977  303.817  821.931
-52.9275  303.23  821.82
-53.2574  302.644  821.709
-53.5873  302.058  821.599
-53.8506  301.11  821.468
-54.114  300.162  821.337
-54.3773  299.214  821.206
-54.6407  298.266  821.075
-54.7775  297.531  820.986
-54.9144  296.796  820.897
-55.0513  296.061  820.807
-55.1881  295.326  820.718
-55.325  294.591  820.629
-55.4618  293.856  820.539
-55.5987  293.121  820.45
-55.7355  292.386  820.361
-55.7787  292.101  820.328
-55.7495  291.307  820.263
-55.7203  290.512  820.198
-55.6911  289.718  820.133
-55.6618  288.924  820.069
-55.5039  288.224  820.035
-55.346  287.525  820.002
-55.1881  286.825  819.969
-55.0302  286.125  819.935
-54.7248  285.676  819.95
-54.4194  285.226  819.965
-54.1141  284.777  819.981
-53.8087  284.327  819.996
-53.5033  283.878  820.011
-53.1979  283.428  820.026
-52.8926  282.979  820.041
-52.5872  282.529  820.056
-52.2962  282.121  820.072
-52.0052  281.712  820.089
-51.7142  281.304  820.105
-51.4232  280.895  820.121
-51.1322  280.487  820.137
-50.8412  280.078  820.153
-50.5502  279.67  820.169
-50.2592  279.261  820.186
-49.9682  278.852  820.202
-49.6772  278.444  820.218
-49.3862  278.035  820.234
-49.0952  277.627  820.25
-48.8042  277.218  820.266
-48.5132  276.81  820.282
-48.2222  276.401  820.299
-47.9312  275.993  820.315
-47.6402  275.584  820.331
-47.3492  275.175  820.347
-47.0582  274.767  820.363
-46.7672  274.358  820.379
-46.4762  273.95  820.396
-46.1852  273.541  820.412
-45.8942  273.133  820.428
-45.6032  272.724  820.444
-45.3121  272.316  820.46
-45.0211  271.907  820.476
-44.7301  271.498  820.493
-44.4391  271.09  820.509
-44.1481  270.681  820.525
-43.8571  270.273  820.541
-43.5661  269.864  820.557
-43.2751  269.456  820.573
-42.9841  269.047  820.59
-42.6931  268.639  820.606
-42.4021  268.23  820.622
-42.1111  267.822  820.638
-41.8201  267.413  820.654
-41.5291  267.004  820.67
-41.2381  266.596  820.687
-40.9471  266.187  820.703
-40.6561  265.779  820.719
-40.3651  265.37  820.735
-40.0741  264.962  820.751
-39.7831  264.553  820.767
-39.4921  264.145  820.784
-39.2011  263.736  820.8
-38.9101  263.327  820.816
-38.6191  262.919  820.832
-38.3281  262.51  820.848
-38.0371  262.102  820.864
-37.7461  261.693  820.88
-37.4551  261.285  820.897
-37.1641  260.876  820.913
-36.8731  260.468  820.929
-36.5821  260.059  820.945
-36.2911  259.65  820.961
-36.0001  259.242  820.977
-35.7091  258.833  820.994
-35.4181  258.425  821.01
-35.1271  258.016  821.026
-34.8361  257.608  821.042
-34.5451  257.199  821.058
-34.2541  256.791  821.074
-33.9631  256.382  821.091
-33.5896  255.918  821.117
-33.216  255.453  821.143
-32.8425  254.988  821.169
-32.469  254.524  821.195
-31.7052  254.006  821.286
-30.9413  253.489  821.377
-30.1775  252.971  821.469
-29.4137  252.453  821.56
-29.3554  252.417  821.567
-28.7596  252.132  821.649
-28.1639  251.846  821.731
-27.5681  251.561  821.812
-26.9723  251.275  821.894
-26.3765  250.99  821.976
-25.7807  250.704  822.057
-25.1849  250.419  822.139
-24.5891  250.133  822.221
-23.9665  249.843  822.307
-23.3439  249.553  822.393
-22.7214  249.263  822.479
-22.0988  248.973  822.565
-21.4762  248.683  822.651
-20.8536  248.393  822.737
-20.231  248.103  822.823
-19.6084  247.813  822.909
-19.1415  248.018  823.011
-18.6747  248.222  823.113
-18.2079  248.426  823.214
-17.7411  248.631  823.316
-17.2743  248.835  823.418
-16.8075  249.04  823.52
-16.3407  249.244  823.621
-15.8739  249.448  823.723
-15.407  249.653  823.825
-14.9402  249.857  823.926
-14.4734  250.061  824.028
-14.0066  250.266  824.13
-13.5398  250.47  824.232
-13.073  250.675  824.333
-12.6062  250.879  824.435
-12.1394  251.083  824.537
-11.6725  251.288  824.638
-11.2057  251.492  824.74
-10.7389  251.696  824.842
-10.2721  251.901  824.944
-9.80529  252.105  825.045
-9.33847  252.309  825.147
-8.87166  252.514  825.249
-8.40485  252.718  825.351
-7.93804  252.923  825.452
-7.47122  253.127  825.554
-7.00441  253.331  825.656
-6.5376  253.536  825.757
-6.07078  253.74  825.859
-5.60397  253.944  825.961
-5.13716  254.149  826.063
-4.67034  254.353  826.164
-4.26738  254.711  826.268
-3.86442  255.068  826.372
-3.46146  255.425  826.476
-3.0585  255.783  826.579
-2.65554  256.14  826.683
-2.25258  256.498  826.787
-1.84962  256.855  826.891
-1.44666  257.213  826.994
-1.0437  257.57  827.098
-0.640742  257.928  827.202
-0.237782  258.285  827.306
0.165179  258.642  827.409
0.568139  259  827.513
0.971099  259.357  827.617
1.37406  259.715  827.721
1.77702  260.072  827.825
1.88104  260.261  827.86
2.03152  260.875  827.941
2.18201  261.49  828.022
2.3325  262.104  828.103
2.48298  262.718  828.184
2.63347  263.332  828.266
2.78396  263.947  828.347
2.93444  264.561  828.428
3.08493  265.175  828.509
3.22592  265.775  828.587
3.36691  266.375  828.665
3.5079  266.974  828.743
3.6489  267.574  828.822
3.6615  268.089  828.869
3.67411  268.603  828.917
3.68672  269.118  828.964
3.69933  269.633  829.012
3.71193  270.147  829.06
3.72454  270.662  829.107
3.73715  271.177  829.155
3.74975  271.691  829.203
3.76236  272.206  829.25
3.77497  272.72  829.298
3.78758  273.235  829.345
3.80018  273.75  829.393
3.81279  274.264  829.441
3.8254  274.779  829.488
3.83801  275.294  829.536
3.85061  275.808  829.584
3.80469  276.529  829.639
3.75876  277.249  829.694
3.69352  278.19  829.766
3.62827  279.132  829.837
s
11.8134  281.407  810.27
11.7147  282.071  810.29
11.616  282.735  810.31
11.5173  283.399  810.331
11.4186  284.063  810.351
11.2276  284.634  810.358
11.0366  285.205  810.366
10.8456  285.776  810.374
10.6546  286.347  810.382
10.4636  286.918  810.39
10.2725  287.489  810.398
10.0815  288.06  810.406
9.89053  288.631  810.414
9.57127  289.301  810.415
9.25201  289.971  810.415
8.93275  290.64  810.416
8.61349  291.31  810.417
8.24629  292.052  810.417
7.87911  292.793  810.417
7.51192  293.534  810.416
7.14472  294.276  810.416
6.6893  294.931  810.404
6.23387  295.586  810.393
5.77844  296.241  810.381
5.32301  296.895  810.369
4.86759  297.55  810.358
4.41216  298.205  810.346
3.95673  298.86  810.334
3.5013  299.515  810.322
3.04588  300.17  810.311
2.59045  300.825  810.299
2.13502  301.48  810.287
1.67959  302.135  810.276
1.22417  302.79  810.264
0.76874  303.445  810.252
0.313312  304.1  810.24
-0.142115  304.755  810.229
-0.578751  305.158  810.208
-1.01539  305.561  810.187
-1.45202  305.964  810.166
-1.88866  306.367  810.145
-2.51749  306.8  810.108
-3.14632  307.232  810.072
-3.77516  307.665  810.035
-4.40399  308.097  809.998
-5.23635  308.565  809.945
-6.06871  309.032  809.892
-6.90107  309.499  809.839
-7.73343  309.966  809.786
-8.56579  310.434  809.734
-9.39815  310.901  809.681
-10.2305  311.368  809.628
-11.0629  311.836  809.575
-11.9603  312.146  809.509
-12.8577  312.456  809.444
-13.7551  312.767  809.378
-14.6526  313.077  809.313
-15.55  313.387  809.247
-16.4474  313.698  809.182
-17.3448  314.008  809.116
-18.2422  314.318  809.051
-19.1397  314.629  808.985
-20.0371  314.939  808.92
-20.9345  315.25  808.854
-21.8319  315.56  808.789
-22.7294  315.87  808.724
-23.6268  316.181  808.658
-24.5242  316.491  808.593
-25.4216  316.801  808.527
-26.2748  317.048  808.463
-27.128  317.295  808.398
-27.9811  317.542  808.334
-28.8343  317.789  808.27
-29.3695  317.941  808.229
-29.9046  318.093  808.189
-30.4398  318.245  808.148
-30.975  318.397  808.108
-31.5244  318.543  808.066
-32.0738  318.689  808.024
-32.7242  318.746  807.969
-33.3746  318.803  807.915
-34.1764  318.727  807.841
-34.9781  318.651  807.767
-35.8891  318.483  807.68
-36.8001  318.314  807.592
-37.4096  318.103  807.53
-38.0192  317.893  807.467
-38.6287  317.682  807.404
-39.2383  317.471  807.342
-39.8478  317.26  807.279
-40.4574  317.049  807.216
-41.0669  316.838  807.153
-41.6765  316.628  807.091
-42.2516  316.296  807.026
-42.8267  315.964  806.961
-43.4019  315.631  806.896
-43.977  315.299  806.831
-44.5521  314.967  806.766
-45.1272  314.635  806.701
-45.7023  314.303  806.636
-46.2775  313.971  806.572
-46.7478  313.651  806.516
-47.2181  313.331  806.461
-47.6884  313.01  806.406
-48.1587  312.69  806.351
-48.6221  312.32  806.294
-49.0855  311.95  806.237
-49.5489  311.58  806.181
-50.0124  311.21  806.124
-50.4758  310.84  806.067
-50.9392  310.471  806.01
-51.4026  310.101  805.954
-51.866  309.731  805.897
-52.0415  309.327  805.864
-52.3283  308.431  805.8
-52.6151  307.535  805.736
-52.902  306.638  805.672
-53.1888  305.742  805.608
-53.4756  304.846  805.544
-53.7625  303.95  805.48
-54.0493  303.054  805.417
-54.3361  302.158  805.353
-54.2109  301.24  805.324
-54.0857  300.322  805.295
-53.9605  299.404  805.267
-53.8353  298.487  805.238
-53.7101  297.569  805.209
-53.5849  296.651  805.181
-53.4597  295.734  805.152
-53.3345  294.816  805.123
-53.0521  294.027  805.114
-52.7698  293.239  805.105
-52.4874  292.451  805.096
-52.205  291.662  805.086
-51.9315  291.184  805.09
-51.6581  290.705  805.093
-51.3846  290.226  805.096
-51.1111  289.747  805.1
-50.7752  289.16  805.104
-50.4394  288.572  805.108
-50.1035  287.984  805.112
-49.7677  287.397  805.116
-49.4318  286.809  805.12
-49.0959  286.221  805.125
-48.7601  285.633  805.129
-48.4242  285.046  805.133
-48.0884  284.458  805.137
-47.7525  283.87  805.141
-47.4167  283.282  805.145
-47.0808  282.695  805.149
-46.7449  282.107  805.153
-46.4091  281.519  805.158
-46.0732  280.931  805.162
-45.7374  280.344  805.166
-45.4015  279.756  805.17
-45.0657  279.168  805.174
-44.7298  278.581  805.178
-44.394  277.993  805.182
-44.0581  277.405  805.186
-43.7223  276.817  805.19
-43.3864  276.23  805.195
-43.0505  275.642  805.199
-42.7147  275.054  805.203
-42.3788  274.466  805.207
-42.043  273.879  805.211
-41.7071  273.291  805.215
-41.3713  272.703  805.219
-41.0354  272.115  805.223
-40.6996  271.528  805.228
-40.3637  270.94  805.232
-40.0278  270.352  805.236
-39.692  269.764  805.24
-39.3561  269.177  805.244
-39.0203  268.589  805.248
-38.6844  268.001  805.252
-38.3486  267.414  805.256
-38.0127  266.826  805.26
-37.6769  266.238  805.265
-37.341  265.65  805.269
-37.0051  265.063  805.273
-36.6693  264.475  805.277
-36.3334  263.887  805.281
-35.9976  263.299  805.285
-35.6617  262.712  805.289
-35.3259  262.124  805.293
-34.99  261.536  805.298
-34.6542  260.948  805.302
-34.3183  260.361  805.306
-33.9824  259.773  805.31
-33.6466  259.185  805.314
-33.3107  258.598  805.318
-32.9749  258.01  805.322
-32.639  257.422  805.326
-32.3032  256.834  805.331
-31.9673  256.247  805.335
-31.6315  255.659  805.339
-31.2956  255.071  805.343
-30.9597  254.483  805.347
-30.6239  253.896  805.351
-30.288  253.308  805.355
-29.9522  252.72  805.359
-29.6163  252.132  805.364
-29.096  251.402  805.378
-28.4235  250.755  805.409
-27.7509  250.108  805.44
-27.2992  249.739  805.464
-26.8476  249.371  805.488
-26.3959  249.003  805.511
-25.9443  248.635  805.535
-25.4926  248.267  805.559
-25.0409  247.899  805.583
-24.5893  247.531  805.607
-24.1376  247.163  805.63
-23.3587  246.758  805.681
-22.5797  246.352  805.732
-21.8008  245.947  805.783
-21.0218  245.542  805.834
-20.2429  245.137  805.885
-19.4639  244.732  805.936
-18.685  244.327  805.987
-17.906  243.921  806.038
-17.3335  244.005  806.092
-16.761  244.089  806.146
-16.1885  244.172  806.2
-15.616  244.256  806.254
-15.0435  244.339  806.308
-14.471  244.423  806.362
-13.8985  244.506  806.416
-13.326  244.59  806.47
-12.7535  244.673  806.523
-12.181  244.757  806.577
-11.6085  244.84  806.631
-11.036  244.924  806.685
-10.4635  245.007  806.739
-9.89095  245.091  806.793
-9.31844  245.174  806.847
-8.74594  245.258  806.901
-8.17343  245.341  806.955
-7.60093  245.425  807.009
-7.02842  245.508  807.063
-6.45592  245.592  807.117
-5.88341  245.675  807.171
-5.31091  245.759  807.225
-4.73841  245.842  807.279
-4.1659  245.926  807.332
-3.5934  246.009  807.386
-3.02089  246.093  807.44
-2.44839  246.176  807.494
-1.87588  246.26  807.548
-1.30338  246.343  807.602
-0.730871  246.427  807.656
-0.158367  246.51  807.71
0.414138  246.594  807.764
1.09643  247.167  807.849
1.77872  247.739  807.933
2.46101  248.312  808.018
3.14331  248.885  808.103
3.8256  249.458  808.188
4.50789  250.031  808.272
5.19018  250.604  808.357
5.87248  251.177  808.442
6.08098  251.769  808.486
6.28947  252.361  808.53
6.49797  252.953  808.573
6.70647  253.545  808.617
6.91497  254.137  808.661
7.12347  254.729  808.705
7.33197  255.321  808.749
7.54047  255.913  808.793
7.74897  256.506  808.837
7.95747  257.098  808.881
8.16597  257.69  808.925
8.37447  258.282  808.969
8.58297  258.874  809.013
8.79147  259.466  809.057
8.99997  260.058  809.1
9.20847  260.65  809.144
9.44441  261.375  809.196
9.68036  262.1  809.249
9.91631  262.826  809.301
10.1523  263.551  809.353
10.3725  264.249  809.402
10.5927  264.948  809.452
10.813  265.647  809.501
11.0332  266.345  809.551
11.236  267.015  809.598
11.4389  267.685  809.645
11.6417  268.356  809.691
11.8445  269.026  809.738
11.9477  269.954  809.787
12.0508  270.882  809.836
12.1268  271.768  809.881
12.2028  272.654  809.926
12.268  273.521  809.97
12.3332  274.388  810.013
12.3528  275.19  810.049
12.3724  275.992  810.086
12.3026  276.669  810.109
12.2327  277.346  810.132
12.1628  278.023  810.155
12.0929  278.7  810.178
12.023  279.376  810.201
11.9532  280.053  810.224
11.8833  280.73  810.247
s
19.0082  283.891  789.986
18.8125  284.456  789.986
18.5122  285.309  789.986
18.212  286.163  789.986
17.9117  287.016  789.986
17.6114  287.87  789.986
17.3368  288.415  789.986
17.0621  288.96  789.986
16.7875  289.505  789.986
16.5129  290.05  789.986
16.2382  290.596  789.986
15.9636  291.141  789.986
15.6889  291.686  789.986
15.4143  292.231  789.986
14.9307  293.05  789.986
14.4471  293.87  789.986
13.9635  294.689  789.986
13.48  295.509  789.986
13.0534  296.116  789.986
12.6268  296.724  789.986
12.2003  297.332  789.986
11.7737  297.94  789.986
11.3471  298.547  789.986
10.9205  299.155  789.986
10.494  299.763  789.986
10.0674  300.371  789.986
9.69317  300.751  789.986
9.31896  301.132  789.986
8.94475  301.513  789.986
8.57053  301.894  789.986
8.19632  302.275  789.986
7.82211  302.656  789.986
7.44789  303.037  789.986
7.07368  303.417  789.986
6.69947  303.798  789.986
6.32525  304.179  789.986
5.95104  304.56  789.986
5.57683  304.941  789.986
5.20261  305.322  789.986
4.8284  305.702  789.986
4.45419  306.083  789.986
4.07997  306.464  789.986
3.51722  306.88  789.986
2.95446  307.296  789.986
2.39171  307.711  789.986
1.82895  308.127  789.986
1.26619  308.543  789.986
0.703439  308.958  789.986
0.140683  309.374  789.986
-0.422072  309.79  789.986
-0.930081  310.016  789.986
-1.43809  310.242  789.986
-1.9461  310.468  789.986
-2.45411  310.694  789.986
-2.96212  310.92  789.986
-3.47013  311.146  789.986
-3.97813  311.371  789.986
-4.48614  311.597  789.986
-4.99415  311.823  789.986
-5.50216  312.049  789.986
-6.01017  312.275  789.986
-6.51818  312.501  789.986
-7.02619  312.727  789.986
-7.5342  312.953  789.986
-8.0422  313.179  789.986
-8.55021  313.405  789.986
-9.05822  313.631  789.986
-9.56623  313.857  789.986
-10.0742  314.083  789.986
-10.5822  314.309  789.986
-11.0903  314.535  789.986
-11.5983  314.761  789.986
-12.1063  314.987  789.986
-12.6143  315.213  789.986
-13.1223  315.439  789.986
-13.6303  315.665  789.986
-14.1383  315.891  789.986
-14.6463  316.116  789.986
-15.1543  316.342  789.986
-15.6623  316.568  789.986
-16.1703  316.794  789.986
-16.6784  317.02  789.986
-17.3964  317.287  789.986
-18.1145  317.554  789.986
-18.8325  317.821  789.986
-19.5506  318.088  789.986
-20.2686  318.355  789.986
-20.9867  318.622  789.986
-21.7047  318.89  789.986
-22.4228  319.157  789.986
-23.1409  319.424  789.986
-23.8589  319.691  789.986
-24.577  319.958  789.986
-25.295  320.225  789.986
-26.0131  320.492  789.986
-26.7311  320.759  789.986
-27.4492  321.026  789.986
-28.1672  321.293  789.986
-28.6763  321.289  789.986
-29.1854  321.286  789.986
-29.6944  321.282  789.986
-30.2035  321.279  789.986
-30.7126  321.275  789.986
-31.2216  321.272  789.986
-31.7307  321.268  789.986
-32.2398  321.265  789.986
-33.2022  321.249  789.986
-34.1646  321.232  789.986
-34.6836  321.072  789.986
-35.2026  320.911  789.986
-35.7216  320.751  789.986
-36.2406  320.59  789.986
-37.1367  320.298  789.986
-38.0329  320.007  789.986
-38.929  319.715  789.986
-39.8252  319.424  789.986
-40.56  319.074  789.986
-41.2947  318.723  789.986
-42.0295  318.373  789.986
-42.7642  318.023  789.986
-43.499  317.673  789.986
-44.2337  317.322  789.986
-44.9685  316.972  789.986
-45.7032  316.622  789.986
-46.1793  316.154  789.986
-46.6553  315.687  789.986
-47.1313  315.22  789.986
-47.6074  314.752  789.986
-47.8963  314.256  789.986
-48.1853  313.76  789.986
-48.4743  313.264  789.986
-48.7632  312.768  789.986
-49.0522  312.272  789.986
-49.3411  311.776  789.986
-49.6301  311.28  789.986
-49.9191  310.784  789.986
-50.1087  310.286  789.986
-50.2984  309.788  789.986
-50.488  309.29  789.986
-50.6777  308.792  789.986
-50.7625  308.012  789.986
-50.8473  307.232  789.986
-50.9321  306.451  789.986
-51.0169  305.671  789.986
-51.0199  305.168  789.986
-50.9407  304.492  789.986
-50.8615  303.816  789.986
-50.7822  303.14  789.986
-50.703  302.465  789.986
-50.4668  301.973  789.986
-50.2306  301.481  789.986
-49.9944  300.99  789.986
-49.7582  300.498  789.986
-49.522  300.006  789.986
-49.2858  299.515  789.986
-49.0496  299.023  789.986
-48.8134  298.532  789.986
-48.4412  297.796  789.986
-48.0691  297.061  789.986
-47.6969  296.325  789.986
-47.3248  295.59  789.986
-46.9526  294.854  789.986
-46.5805  294.119  789.986
-46.2083  293.383  789.986
-45.8362  292.648  789.986
-45.464  291.912  789.986
-45.0919  291.177  789.986
-44.7198  290.441  789.986
-44.3476  289.706  789.986
-43.9755  288.971  789.986
-43.6033  288.235  789.986
-43.2312  287.5  789.986
-42.859  286.764  789.986
-42.4869  286.029  789.986
-42.1147  285.293  789.986
-41.7426  284.558  789.986
-41.3705  283.822  789.986
-40.9983  283.087  789.986
-40.6262  282.351  789.986
-40.254  281.616  789.986
-39.8819  280.88  789.986
-39.5097  280.145  789.986
-39.1376  279.409  789.986
-38.7654  278.674  789.986
-38.3933  277.939  789.986
-38.0211  277.203  789.986
-37.649  276.468  789.986
-37.2769  275.732  789.986
-36.9047  274.997  789.986
-36.5326  274.261  789.986
-36.1604  273.526  789.986
-35.7883  272.79  789.986
-35.4161  272.055  789.986
-35.044  271.319  789.986
-34.6718  270.584  789.986
-34.2997  269.848  789.986
-33.9276  269.113  789.986
-33.5554  268.377  789.986
-33.1833  267.642  789.986
-32.8111  266.906  789.986
-32.439  266.171  789.986
-32.0668  265.436  789.986
-31.6947  264.7  789.986
-31.3225  263.965  789.986
-30.9504  263.229  789.986
-30.5782  262.494  789.986
-30.2061  261.758  789.986
-29.834  261.023  789.986
-29.4618  260.287  789.986
-29.0897  259.552  789.986
-28.7175  258.816  789.986
-28.3454  258.081  789.986
-27.9732  257.345  789.986
-27.6011  256.61  789.986
-27.2289  255.874  789.986
-26.8568  255.139  789.986
-26.4847  254.404  789.986
-26.1125  253.668  789.986
-25.7404  252.933  789.986
-25.3682  252.197  789.986
-24.9961  251.462  789.986
-24.7242  250.931  789.986
-24.4522  250.399  789.986
-24.1803  249.868  789.986
-23.9084  249.337  789.986
-23.6365  248.806  789.986
-23.3646  248.275  789.986
-23.0927  247.744  789.986
-22.8207  247.213  789.986
-22.3102  246.765  789.986
-21.7997  246.318  789.986
-21.2891  245.87  789.986
-20.7786  245.422  789.986
-20.2681  244.975  789.986
-19.7575  244.527  789.986
-19.247  244.079  789.986
-18.7365  243.631  789.986
-18.1796  243.239  789.986
-17.6227  242.846  789.986
-17.0658  242.453  789.986
-16.509  242.06  789.986
-15.9993  241.788  789.986
-15.4896  241.516  789.986
-14.98  241.244  789.986
-14.4703  240.972  789.986
-13.9606  240.7  789.986
-13.4509  240.428  789.986
-12.9413  240.155  789.986
-12.4316  239.883  789.986
-11.9219  239.611  789.986
-11.4123  239.339  789.986
-10.9026  239.067  789.986
-10.3929  238.795  789.986
-9.88324  238.523  789.986
-9.37357  238.251  789.986
-8.8639  237.979  789.986
-8.35422  237.707  789.986
-7.52969  237.938  789.986
-6.70515  238.17  789.986
-5.88061  238.401  789.986
-5.05607  238.633  789.986
-4.23153  238.864  789.986
-3.40699  239.096  789.986
-2.58245  239.328  789.986
-1.75791  239.559  789.986
-0.933374  239.791  789.986
-0.108835  240.022  789.986
0.715704  240.254  789.986
1.54024  240.485  789.986
2.36478  240.717  789.986
3.18932  240.949  789.986
4.01386  241.18  789.986
4.8384  241.412  789.986
5.58294  241.69  789.986
6.32748  241.968  789.986
7.07201  242.246  789.986
7.81655  242.524  789.986
8.21261  243.129  789.986
8.60867  243.734  789.986
9.00473  244.338  789.986
9.40079  244.943  789.986
9.69574  245.743  789.986
9.99068  246.542  789.986
10.2856  247.342  789.986
10.5806  248.141  789.986
10.8755  248.94  789.986
11.1705  249.74  789.986
11.4654  250.539  789.986
11.7603  251.339  789.986
12.0553  252.138  789.986
12.3502  252.938  789.986
12.6452  253.737  789.986
12.9401  254.536  789.986
13.2351  255.336  789.986
13.53  256.135  789.986
13.8249  256.935  789.986
14.1199  257.734  789.986
14.4148  258.534  789.986
14.7098  259.333  789.986
15.0047  260.132  789.986
15.2997  260.932  789.986
15.5946  261.731  789.986
15.8895  262.531  789.986
16.1845  263.33  789.986
16.4794  264.13  789.986
16.7744  264.929  789.986
17.0693  265.728  789.986
17.3643  266.528  789.986
17.6592  267.327  789.986
17.9541  268.127  789.986
18.2491  268.926  789.986
18.544  269.726  789.986
18.839  270.525  789.986
18.985  271.104  789.986
19.131  271.683  789.986
19.277  272.262  789.986
19.423  272.841  789.986
19.5261  273.359  789.986
19.6292  273.877  789.986
19.7324  274.395  789.986
19.8355  274.913  789.986
19.9386  275.431  789.986
20.0417  275.949  789.986
20.1449  276.467  789.986
20.248  276.985  789.986
20.1906  277.671  789.986
20.1332  278.356  789.986
20.0757  279.042  789.986
20.0183  279.727  789.986
19.9282  280.366  789.986
19.838  281.004  789.986
19.7165  281.6  789.986
19.5951  282.196  789.986
19.3994  282.761  789.986
19.2038  283.326  789.986
s
26.7747  283.495  754.016
26.4692  284.222  754.016
26.1638  284.949  754.016
25.7955  285.662  754.016
25.3193  286.211  754.016
24.8431  286.76  754.016
24.3668  287.309  754.016
23.8906  287.859  754.016
23.4143  288.408  754.016
22.9381  288.957  754.016
22.4618  289.506  754.016
21.9856  290.056  754.016
21.5093  290.605  754.016
21.0331  291.154  754.016
20.5568  291.703  754.016
20.0806  292.253  754.016
19.6043  292.802  754.016
19.1281  293.351  754.016
18.6518  293.901  754.016
18.1756  294.45  754.016
17.6993  294.999  754.016
17.2231  295.548  754.016
16.7468  296.098  754.016
16.2706  296.647  754.016
15.7943  297.196  754.016
15.3181  297.745  754.016
14.8418  298.295  754.016
14.3656  298.844  754.016
13.8893  299.393  754.016
13.4131  299.942  754.016
12.9368  300.492  754.016
12.4606  301.041  754.016
11.9843  301.59  754.016
11.5081  302.139  754.016
11.0318  302.689  754.016
10.5556  303.238  754.016
9.91299  303.963  754.016
9.2704  304.688  754.016
8.89473  305.068  754.016
8.51906  305.449  754.016
8.14339  305.83  754.016
7.76773  306.211  754.016
7.22358  306.608  754.016
6.67943  307.005  754.016
6.13528  307.403  754.016
5.59114  307.8  754.016
5.12259  308.034  754.016
4.65404  308.268  754.016
4.18549  308.502  754.016
3.71694  308.736  754.016
3.24839  308.97  754.016
2.77984  309.203  754.016
2.31129  309.437  754.016
1.84275  309.671  754.016
1.3742  309.905  754.016
0.905647  310.139  754.016
0.437098  310.373  754.016
-0.0314513  310.606  754.016
-0.5  310.84  754.016
-0.96855  311.074  754.016
-1.4371  311.308  754.016
-1.90565  311.542  754.016
-2.3742  311.776  754.016
-2.84275  312.01  754.016
-3.3113  312.243  754.016
-3.77984  312.477  754.016
-4.24839  312.711  754.016
-4.71694  312.945  754.016
-5.18549  313.179  754.016
-5.65404  313.413  754.016
-6.12259  313.647  754.016
-6.59114  313.88  754.016
-7.05969  314.114  754.016
-7.52824  314.348  754.016
-7.99679  314.582  754.016
-8.46533  314.816  754.016
-8.93388  315.05  754.016
-9.40243  315.284  754.016
-9.88914  315.48  754.016
-10.3758  315.676  754.016
-10.8625  315.873  754.016
-11.3493  316.069  754.016
-11.836  316.266  754.016
-12.3227  316.462  754.016
-12.8094  316.659  754.016
-13.2961  316.855  754.016
-13.7828  317.052  754.016
-14.2695  317.248  754.016
-14.7562  317.445  754.016
-15.2429  317.641  754.016
-15.7296  317.837  754.016
-16.2163  318.034  754.016
-16.703  318.23  754.016
-17.1897  318.427  754.016
-17.6764  318.623  754.016
-18.1631  318.82  754.016
-18.6498  319.016  754.016
-19.1365  319.213  754.016
-19.6232  319.409  754.016
-20.1099  319.606  754.016
-20.5966  319.802  754.016
-21.0833  319.998  754.016
-21.57  320.195  754.016
-22.0567  320.391  754.016
-22.5434  320.588  754.016
-23.0302  320.784  754.016
-23.5169  320.981  754.016
-24.0036  321.177  754.016
-24.4903  321.374  754.016
-24.977  321.57  754.016
-25.5115  321.748  754.016
-26.0461  321.926  754.016
-26.5806  322.104  754.016
-27.1152  322.281  754.016
-27.6497  322.459  754.016
-28.1842  322.637  754.016
-28.7188  322.815  754.016
-29.2533  322.993  754.016
-29.9393  322.998  754.016
-30.6253  323.004  754.016
-31.3027  322.888  754.016
-31.98  322.772  754.016
-32.6573  322.656  754.016
-33.3347  322.54  754.016
-34.012  322.424  754.016
-34.6894  322.307  754.016
-35.3667  322.191  754.016
-36.044  322.075  754.016
-36.7214  321.959  754.016
-37.3987  321.843  754.016
-38.076  321.727  754.016
-38.7534  321.611  754.016
-39.4307  321.495  754.016
-40.1081  321.378  754.016
-40.7854  321.262  754.016
-41.4627  321.146  754.016
-41.9251  320.799  754.016
-42.3876  320.452  754.016
-42.85  320.105  754.016
-43.3124  319.758  754.016
-43.5215  319.046  754.016
-43.7306  318.333  754.016
-43.9582  317.504  754.016
-44.1859  316.675  754.016
-44.2706  316.104  754.016
-44.3552  315.532  754.016
-44.4398  314.96  754.016
-44.5245  314.388  754.016
-44.6091  313.817  754.016
-44.6938  313.245  754.016
-44.7784  312.673  754.016
-44.863  312.101  754.016
-44.5725  311.544  754.016
-44.2819  310.986  754.016
-43.9913  310.428  754.016
-43.7008  309.87  754.016
-43.4102  309.312  754.016
-43.1196  308.755  754.016
-42.829  308.197  754.016
-42.5385  307.639  754.016
-42.2479  307.081  754.016
-41.9573  306.524  754.016
-41.6668  305.966  754.016
-41.3762  305.408  754.016
-41.0856  304.85  754.016
-40.795  304.293  754.016
-40.5045  303.735  754.016
-40.2139  303.177  754.016
-39.9233  302.619  754.016
-39.6328  302.062  754.016
-39.3422  301.504  754.016
-39.0516  300.946  754.016
-38.761  300.388  754.016
-38.4705  299.83  754.016
-38.1799  299.273  754.016
-37.8893  298.715  754.016
-37.5988  298.157  754.016
-37.3082  297.599  754.016
-37.0176  297.042  754.016
-36.727  296.484  754.016
-36.4365  295.926  754.016
-36.1459  295.368  754.016
-35.8553  294.811  754.016
-35.5648  294.253  754.016
-35.2742  293.695  754.016
-34.9836  293.137  754.016
-34.693  292.579  754.016
-34.4025  292.022  754.016
-34.1119  291.464  754.016
-33.8213  290.906  754.016
-33.5308  290.348  754.016
-33.2402  289.791  754.016
-32.9496  289.233  754.016
-32.659  288.675  754.016
-32.3685  288.117  754.016
-32.0779  287.56  754.016
-31.7873  287.002  754.016
-31.4968  286.444  754.016
-31.2062  285.886  754.016
-30.9156  285.329  754.016
-30.625  284.771  754.016
-30.3345  284.213  754.016
-30.0439  283.655  754.016
-29.7533  283.097  754.016
-29.4628  282.54  754.016
-29.1722  281.982  754.016
-28.8816  281.424  754.016
-28.591  280.866  754.016
-28.3005  280.309  754.016
-28.0099  279.751  754.016
-27.7193  279.193  754.016
-27.4288  278.635  754.016
-27.1382  278.078  754.016
-26.8476  277.52  754.016
-26.557  276.962  754.016
-26.2665  276.404  754.016
-25.9759  275.847  754.016
-25.6853  275.289  754.016
-25.3948  274.731  754.016
-25.1042  274.173  754.016
-24.8136  273.615  754.016
-24.523  273.058  754.016
-24.2325  272.5  754.016
-23.9419  271.942  754.016
-23.6513  271.384  754.016
-23.3608  270.827  754.016
-23.0702  270.269  754.016
-22.7796  269.711  754.016
-22.489  269.153  754.016
-22.1985  268.596  754.016
-21.9079  268.038  754.016
-21.6173  267.48  754.016
-21.3268  266.922  754.016
-21.0362  266.365  754.016
-20.7456  265.807  754.016
-20.4551  265.249  754.016
-20.1645  264.691  754.016
-19.8739  264.133  754.016
-19.5833  263.576  754.016
-19.2928  263.018  754.016
-19.0022  262.46  754.016
-18.7116  261.902  754.016
-18.4211  261.345  754.016
-18.1305  260.787  754.016
-17.8399  260.229  754.016
-17.5493  259.671  754.016
-17.2588  259.114  754.016
-16.9682  258.556  754.016
-16.6776  257.998  754.016
-16.3871  257.44  754.016
-16.0965  256.882  754.016
-15.8059  256.325  754.016
-15.5153  255.767  754.016
-15.2248  255.209  754.016
-14.9342  254.651  754.016
-14.6436  254.094  754.016
-14.3531  253.536  754.016
-14.0625  252.978  754.016
-13.7719  252.42  754.016
-13.4813  251.863  754.016
-13.1908  251.305  754.016
-12.9002  250.747  754.016
-12.6096  250.189  754.016
-12.3191  249.632  754.016
-12.0285  249.074  754.016
-11.7379  248.516  754.016
-11.4473  247.958  754.016
-11.1568  247.4  754.016
-10.8662  246.843  754.016
-10.5756  246.285  754.016
-10.2851  245.727  754.016
-9.99448  245.169  754.016
-9.70391  244.612  754.016
-9.41334  244.054  754.016
-9.12277  243.496  754.016
-8.8322  242.938  754.016
-8.54163  242.381  754.016
-8.25106  241.823  754.016
-7.96048  241.265  754.016
-7.66991  240.707  754.016
-7.06499  239.938  754.016
-6.46008  239.17  754.016
-5.85516  238.401  754.016
-5.25024  237.632  754.016
-4.61758  237.294  754.016
-3.98492  236.956  754.016
-3.35226  236.618  754.016
-2.7196  236.28  754.016
-2.08695  235.942  754.016
-1.45429  235.604  754.016
-0.821627  235.266  754.016
-0.188967  234.928  754.016
0.436798  235.16  754.016
1.06256  235.392  754.016
1.68833  235.625  754.016
2.3141  235.857  754.016
2.93986  236.089  754.016
3.56563  236.321  754.016
4.19139  236.554  754.016
4.81716  236.786  754.016
5.44292  237.018  754.016
6.06869  237.251  754.016
6.69446  237.483  754.016
7.32022  237.715  754.016
7.94599  237.947  754.016
8.57175  238.18  754.016
9.19752  238.412  754.016
9.82328  238.644  754.016
10.3361  238.97  754.016
10.8489  239.296  754.016
11.3617  239.621  754.016
11.8745  239.947  754.016
12.3873  240.273  754.016
12.9001  240.599  754.016
13.4129  240.924  754.016
13.9257  241.25  754.016
14.3638  241.804  754.016
14.567  242.287  754.016
14.7702  242.769  754.016
14.9734  243.252  754.016
15.1766  243.735  754.016
15.3798  244.218  754.016
15.583  244.701  754.016
15.7862  245.184  754.016
15.9893  245.667  754.016
16.1925  246.15  754.016
16.3957  246.632  754.016
16.5989  247.115  754.016
16.8021  247.598  754.016
17.0053  248.081  754.016
17.2085  248.564  754.016
17.4117  249.047  754.016
17.6149  249.53  754.016
17.8181  250.013  754.016
18.0213  250.495  754.016
18.2244  250.978  754.016
18.4276  251.461  754.016
18.6308  251.944  754.016
18.834  252.427  754.016
19.0372  252.91  754.016
19.2404  253.393  754.016
19.4436  253.875  754.016
19.6468  254.358  754.016
19.85  254.841  754.016
20.0532  255.324  754.016
20.2564  255.807  754.016
20.4595  256.29  754.016
20.6627  256.773  754.016
20.8659  257.256  754.016
21.0691  257.738  754.016
21.2723  258.221  754.016
21.4755  258.704  754.016
21.6787  259.187  754.016
21.8819  259.67  754.016
22.0851  260.153  754.016
22.2883  260.636  754.016
22.4915  261.119  754.016
22.6946  261.601  754.016
22.8978  262.084  754.016
23.101  262.567  754.016
23.3042  263.05  754.016
23.5074  263.533  754.016
23.7106  264.016  754.016
23.9138  264.499  754.016
24.117  264.982  754.016
24.3202  265.464  754.016
24.5234  265.947  754.016
24.7266  266.43  754.016
24.9297  266.913  754.016
25.1329  267.396  754.016
25.3361  267.879  754.016
25.5393  268.362  754.016
25.7425  268.844  754.016
25.9457  269.327  754.016
26.1489  269.81  754.016
26.3521  270.293  754.016
26.5553  270.776  754.016
26.7585  271.259  754.016
26.9617  271.742  754.016
27.1649  272.225  754.016
27.368  272.707  754.016
27.3882  272.786  754.016
27.5289  273.726  754.016
27.6695  274.665  754.016
27.7778  275.578  754.016
27.8861  276.492  754.016
27.9944  277.405  754.016
28.1027  278.318  754.016
27.9234  279.249  754.016
27.7442  280.179  754.016
27.5649  281.11  754.016
27.3857  282.041  754.016
27.0802  282.768  754.016
s
15.2138  286.381  718.046
14.6916  286.917  718.046
14.1695  287.452  718.046
13.6473  287.988  718.046
13.1252  288.524  718.046
12.6031  289.059  718.046
12.0809  289.595  718.046
11.5588  290.131  718.046
11.0366  290.666  718.046
10.5145  291.202  718.046
9.99231  291.738  718.046
9.47016  292.273  718.046
8.84791  292.85  718.046
8.22566  293.427  718.046
7.60341  294.004  718.046
6.98116  294.581  718.046
6.35891  295.158  718.046
5.73666  295.735  718.046
5.11441  296.313  718.046
4.49216  296.89  718.046
3.85741  297.26  718.046
3.22266  297.631  718.046
2.5879  298.001  718.046
1.95315  298.372  718.046
1.3184  298.742  718.046
0.683649  299.113  718.046
0.0488977  299.483  718.046
-0.585854  299.854  718.046
-1.22061  300.224  718.046
-1.85536  300.595  718.046
-2.49011  300.965  718.046
-3.12486  301.336  718.046
-3.75961  301.706  718.046
-4.39436  302.077  718.046
-5.02911  302.447  718.046
-5.66387  302.818  718.046
-6.29862  303.188  718.046
-6.93337  303.559  718.046
-7.56812  303.929  718.046
-8.20287  304.3  718.046
-8.83762  304.67  718.046
-9.47238  305.041  718.046
-10.1071  305.412  718.046
-10.7419  305.782  718.046
-11.3766  306.153  718.046
-12.0114  306.523  718.046
-12.6461  306.894  718.046
-13.2809  307.264  718.046
-13.9156  307.635  718.046
-14.5504  308.005  718.046
-15.1851  308.376  718.046
-15.8199  308.746  718.046
-16.4736  308.831  718.046
-17.1274  308.915  718.046
-17.7811  308.999  718.046
-18.4348  309.083  718.046
-19.0886  309.168  718.046
-19.7423  309.252  718.046
-20.396  309.336  718.046
-21.0498  309.42  718.046
-21.7035  309.505  718.046
-22.3573  309.589  718.046
-23.011  309.673  718.046
-23.6647  309.758  718.046
-24.3185  309.842  718.046
-24.9722  309.926  718.046
-25.6259  310.01  718.046
-26.2797  310.095  718.046
-26.9334  310.179  718.046
-27.5871  310.263  718.046
-28.2409  310.348  718.046
-28.8946  310.432  718.046
-29.5483  310.516  718.046
-30.2021  310.6  718.046
-30.8558  310.685  718.046
-31.5096  310.769  718.046
-32.1633  310.853  718.046
-32.817  310.938  718.046
-33.4708  311.022  718.046
-34.1245  311.106  718.046
-34.7782  311.19  718.046
-35.432  311.275  718.046
-36.0857  311.359  718.046
-36.7394  311.443  718.046
-37.4362  311.169  718.046
-38.1329  310.896  718.046
-38.8296  310.622  718.046
-39.5263  310.348  718.046
-40.049  310.065  718.046
-40.5717  309.782  718.046
-41.0944  309.5  718.046
-41.6171  309.217  718.046
-42.1398  308.934  718.046
-42.6625  308.651  718.046
-43.1852  308.368  718.046
-43.7079  308.085  718.046
-44.2306  307.802  718.046
-44.7533  307.519  718.046
-45.276  307.237  718.046
-45.7987  306.954  718.046
-46.3214  306.671  718.046
-46.8441  306.388  718.046
-47.3668  306.105  718.046
-47.8895  305.822  718.046
-48.1847  304.928  718.046
-48.48  304.035  718.046
-48.7752  303.141  718.046
-49.0705  302.247  718.046
-49.2356  301.338  718.046
-49.4007  300.428  718.046
-49.5658  299.519  718.046
-49.7309  298.609  718.046
-49.5825  298.034  718.046
-49.4341  297.459  718.046
-49.2745  296.92  718.046
-49.115  296.38  718.046
-48.9554  295.841  718.046
-48.7958  295.302  718.046
-48.3512  294.721  718.046
-47.9065  294.141  718.046
-47.3894  293.789  718.046
-46.8723  293.437  718.046
-46.3899  293.168  718.046
-45.9076  292.898  718.046
-45.4252  292.629  718.046
-44.9429  292.359  718.046
-44.4605  292.09  718.046
-43.9782  291.821  718.046
-43.4959  291.551  718.046
-43.0135  291.282  718.046
-42.5312  291.012  718.046
-42.0488  290.743  718.046
-41.5665  290.473  718.046
-41.0841  290.204  718.046
-40.6018  289.934  718.046
-40.1194  289.665  718.046
-39.6371  289.395  718.046
-39.1547  289.126  718.046
-38.6724  288.856  718.046
-38.1901  288.587  718.046
-37.7077  288.317  718.046
-37.2254  288.048  718.046
-36.743  287.778  718.046
-36.2607  287.509  718.046
-35.7783  287.239  718.046
-35.296  286.97  718.046
-34.8136  286.701  718.046
-34.3313  286.431  718.046
-33.8489  286.162  718.046
-33.3666  285.892  718.046
-32.8843  285.623  718.046
-32.4019  285.353  718.046
-31.9196  285.084  718.046
-31.4372  284.814  718.046
-30.9549  284.545  718.046
-30.4725  284.275  718.046
-29.9902  284.006  718.046
-29.5078  283.736  718.046
-29.0255  283.467  718.046
-28.5431  283.197  718.046
-28.0608  282.928  718.046
-27.5785  282.658  718.046
-27.0961  282.389  718.046
-26.6138  282.119  718.046
-26.1314  281.85  718.046
-25.6491  281.58  718.046
-25.1667  281.311  718.046
-24.6844  281.042  718.046
-24.202  280.772  718.046
-23.7197  280.503  718.046
-23.2373  280.233  718.046
-22.755  279.964  718.046
-22.2727  279.694  718.046
-21.7903  279.425  718.046
-21.308  279.155  718.046
-20.8256  278.886  718.046
-20.3433  278.616  718.046
-19.8609  278.347  718.046
-19.3786  278.077  718.046
-18.8962  277.808  718.046
-18.4139  277.538  718.046
-17.9315  277.269  718.046
-17.4492  276.999  718.046
-16.9669  276.73  718.046
-16.4845  276.46  718.046
-16.0022  276.191  718.046
-15.5198  275.921  718.046
-15.0375  275.652  718.046
-14.5551  275.383  718.046
-14.0728  275.113  718.046
-13.5904  274.844  718.046
-13.1081  274.574  718.046
-12.6257  274.305  718.046
-12.1434  274.035  718.046
-11.6611  273.766  718.046
-11.1787  273.496  718.046
-10.6964  273.227  718.046
-10.214  272.957  718.046
-9.73167  272.688  718.046
-9.24932  272.418  718.046
-8.76698  272.149  718.046
-8.28463  271.879  718.046
-7.80229  271.61  718.046
-7.31994  271.34  718.046
-6.8376  271.071  718.046
-6.35525  270.801  718.046
-5.8729  270.532  718.046
-5.39056  270.262  718.046
-4.90821  269.993  718.046
-4.42587  269.723  718.046
-3.94352  269.454  718.046
-3.46118  269.185  718.046
-2.97883  268.915  718.046
-2.49649  268.646  718.046
-2.01414  268.376  718.046
-1.53179  268.107  718.046
-1.04945  267.837  718.046
-0.567104  267.568  718.046
-0.0847583  267.298  718.046
0.397587  267.029  718.046
0.879933  266.759  718.046
1.36228  266.49  718.046
1.84462  266.22  718.046
2.32697  265.951  718.046
2.80931  265.681  718.046
3.29166  265.412  718.046
3.77401  265.142  718.046
4.25635  264.873  718.046
4.7387  264.603  718.046
5.22104  264.334  718.046
5.70339  264.064  718.046
6.18573  263.795  718.046
