-116.496 -82.4507 1437.38
-97.7004 -219.336 1282.84
s
-116.496 -82.4507 1437.38
-117.835 -86.2302 1435.36
-117.767 -89.8424 1433.15
-116.553 -94.2572 1431.29
-116.904 -97.275 1429.23
-117.615 -101.41 1427.23
-116.592 -105.759 1425.18
-114.125 -109.734 1423.15
-115.615 -113.719 1421.12
-114.353 -118.617 1419.08
-114.01 -123.82 1417.05
-108.602 -128.282 1415.02
-103.946 -134.655 1412.98
-104.146 -141.123 1410.95
-100.54 -146.862 1408.92
-88.3876 -152.551 1406.89
-92.7897 -156.796 1404.85
-86.7902 -160.428 1402.81
-90.1907 -163.436 1400.78
-88.1638 -166.609 1398.75
-87.1265 -170.442 1396.71
-85.1962 -173.472 1394.68
-83.4163 -176.324 1392.65
-81.6701 -179.128 1390.62
-84.9062 -181.627 1388.58
-84.8041 -184.312 1386.41
-82.5246 -185.929 1384.51
-82.9942 -187.969 1382.48
-84.2027 -189.208 1380.45
-83.5995 -190.695 1378.42
-84.5002 -192.253 1376.37
-83.5821 -194.062 1374.35
-86.3425 -195.312 1372.31
-84.9003 -195.996 1370.28
-83.2332 -196.92 1368.23
-84.4977 -198.07 1366.22
-85.5262 -199.466 1364.18
-84.4188 -199.797 1362.15
-84.3877 -200.649 1360.11
-84.1094 -201.755 1358.08
-85.5436 -202.718 1356.04
-83.9864 -203.511 1354.01
-85.4199 -204.47 1351.98
-87.2448 -205.033 1349.94
-84.4208 -205.494 1347.91
-86.1421 -206.156 1345.88
-85.9664 -207.14 1343.84
-87.3689 -208.129 1341.81
-90.0257 -207.862 1339.6
-86.5089 -208.998 1337.74
-87.9234 -209.971 1335.71
-89.2016 -210.818 1333.68
-85.7564 -210.555 1331.64
-84.1762 -211.354 1329.61
-89.2672 -211.814 1327.57
-87.9726 -212.361 1325.55
-91.5622 -212.714 1323.51
-89.6205 -213.944 1321.48
-93.4282 -214.046 1319.43
-89.2757 -213.938 1317.41
-88.2268 -214.43 1315.37
-91.7187 -214.931 1313.34
-88.9137 -215.326 1311.31
-92.7427 -215.56 1309.28
-93.3901 -215.66 1307.24
-96.6715 -217.206 1305.21
-91.1005 -216.322 1303.17
-94.8578 -217.169 1301.14
-91.9414 -217.07 1299.1
-94.2953 -217.136 1297.08
-94.8871 -217.347 1295.04
-100.341 -218.864 1292.86
-95.7121 -218.117 1290.97
-96.3079 -218.774 1288.94
-96.8589 -218.58 1286.9
-94.4263 -218.732 1284.87
-97.7004 -219.336 1282.84
