-135.365463 7.556505 1496.067694
-135.419551 7.085744 1496.077371
-135.469839 6.613950 1496.085763
-135.516285 6.141185 1496.092895
-135.558847 5.667511 1496.098795
-135.597486 5.192990 1496.103491
-135.632158 4.717683 1496.107009
-135.662823 4.241653 1496.109376
-135.689440 3.764961 1496.110621
-135.711967 3.287669 1496.110770
-135.730363 2.809838 1496.109850
-135.744587 2.331531 1496.107889
-135.754597 1.852809 1496.104914
-135.760353 1.373735 1496.100951
-135.761812 0.894369 1496.096029
-135.758934 0.414774 1496.090174
-135.751677 -0.064988 1496.083414
-135.739999 -0.544856 1496.075775
-135.723861 -1.024768 1496.067286
-135.703220 -1.504662 1496.057972
-135.678034 -1.984477 1496.047863
-135.648264 -2.464150 1496.036983
-135.613867 -2.943619 1496.025362
-135.574802 -3.422824 1496.013026
-135.531027 -3.901702 1496.000002
-135.482503 -4.380191 1495.986317
-135.429186 -4.858229 1495.971999
-135.371037 -5.335756 1495.957076
-135.308013 -5.812708 1495.941573
-135.240073 -6.289024 1495.925518
-135.167176 -6.764643 1495.908939
-135.089281 -7.239502 1495.891863
-135.006347 -7.713540 1495.874316
-134.918332 -8.186695 1495.856327
-134.825194 -8.658905 1495.837922
-134.726893 -9.130109 1495.819129
-134.623387 -9.600244 1495.799974
-134.514635 -10.069248 1495.780485
-134.400596 -10.537061 1495.760690
-134.281228 -11.003620 1495.740615
-134.156490 -11.468863 1495.720287
-134.026341 -11.932729 1495.699735
-133.890739 -12.395156 1495.678984
-133.749643 -12.856082 1495.658062
-133.603013 -13.315444 1495.636997
-133.450805 -13.773183 1495.615816
-133.292996 -14.229237 1495.594545
-133.129627 -14.683559 1495.573214
-132.960753 -15.136104 1495.551849
-132.786432 -15.586825 1495.530479
-132.606720 -16.035676 1495.509133
-132.421674 -16.482612 1495.487837
-132.231351 -16.927587 1495.466620
-132.035808 -17.370556 1495.445511
-131.835102 -17.811472 1495.424536
-131.629289 -18.250290 1495.403725
-131.418426 -18.686964 1495.383105
-131.202570 -19.121449 1495.362704
-130.981778 -19.553698 1495.342551
-130.756106 -19.983666 1495.322673
-130.525612 -20.411307 1495.303098
-130.290352 -20.836575 1495.283854
-130.050383 -21.259425 1495.264971
-129.805761 -21.679810 1495.246474
-129.556544 -22.097686 1495.228393
-129.302789 -22.513006 1495.210756
-129.044551 -22.925725 1495.193590
-128.781888 -23.335796 1495.176924
-128.514857 -23.743175 1495.160785
-128.243515 -24.147815 1495.145203
-127.967918 -24.549670 1495.130203
-127.688123 -24.948695 1495.115816
-127.404186 -25.344845 1495.102069
-127.116166 -25.738072 1495.088989
-126.824118 -26.128332 1495.076605
-126.528099 -26.515579 1495.064946
-126.228166 -26.899767 1495.054038
-125.924376 -27.280851 1495.043910
-125.616786 -27.658784 1495.034590
-125.305452 -28.033520 1495.026107
-124.990431 -28.405015 1495.018487
-124.671780 -28.773222 1495.011760
-124.349556 -29.138096 1495.005953
-124.023816 -29.499590 1495.001094
-123.694616 -29.857660 1494.997211
-123.362013 -30.212259 1494.994333
-123.026065 -30.563341 1494.992487
-122.686827 -30.910861 1494.991701
-122.344356 -31.254773 1494.992004
-121.998710 -31.595032 1494.993423
-121.649945 -31.931591 1494.995987
-121.298117 -32.264426 1494.999707
-120.943277 -32.593597 1495.004529
-120.585476 -32.919185 1495.010382
-120.224762 -33.241272 1495.017196
-119.861187 -33.559938 1495.024901
-119.494801 -33.875265 1495.033425
-119.125653 -34.187335 1495.042699
-118.753794 -34.496228 1495.052652
-118.379273 -34.802025 1495.063212
-118.002142 -35.104809 1495.074310
-117.622450 -35.404659 1495.085876
-117.240247 -35.701658 1495.097837
-116.855583 -35.995886 1495.110125
-116.468509 -36.287425 1495.122669
-116.079074 -36.576356 1495.135397
-115.687329 -36.862760 1495.148240
-115.293324 -37.146719 1495.161126
-114.897109 -37.428313 1495.173986
-114.498734 -37.707625 1495.186748
-114.098248 -37.984734 1495.199343
-113.695704 -38.259722 1495.211699
-113.291149 -38.532672 1495.223746
-112.884635 -38.803663 1495.235414
-112.476211 -39.072777 1495.246632
-112.065929 -39.340095 1495.257330
-111.653837 -39.605699 1495.267436
-111.239986 -39.869669 1495.276881
-110.824426 -40.132088 1495.285593
-110.407207 -40.393035 1495.293503
-109.988379 -40.652593 1495.300539
-109.567993 -40.910843 1495.306632
-109.146099 -41.167865 1495.311711
-108.722746 -41.423742 1495.315704
-108.297984 -41.678554 1495.318542
-107.871865 -41.932382 1495.320154
-107.444437 -42.185308 1495.320470
-107.015752 -42.437413 1495.319418
-106.585859 -42.688779 1495.316929
-106.154808 -42.939485 1495.312932
-105.722649 -43.189615 1495.307356
-105.289433 -43.439248 1495.300131
-104.855210 -43.688466 1495.291186
-104.420030 -43.937351 1495.280450
-103.983942 -44.185984 1495.267854
-103.546997 -44.434445 1495.253327
-103.109229 -44.682774 1495.236802
-102.670607 -44.930845 1495.218237
-102.231083 -45.178487 1495.197591
-101.790610 -45.425533 1495.174827
-101.349141 -45.671813 1495.149904
-100.906627 -45.917158 1495.122784
-100.463021 -46.161399 1495.093428
-100.018277 -46.404368 1495.061796
-99.572346 -46.645895 1495.027850
-99.125182 -46.885811 1494.991551
-98.676736 -47.123947 1494.952859
-98.226962 -47.360135 1494.911736
-97.775811 -47.594205 1494.868142
-97.323237 -47.825988 1494.822039
-96.869191 -48.055316 1494.773387
-96.413628 -48.282020 1494.722147
-95.956498 -48.505930 1494.668281
-95.497755 -48.726877 1494.611749
-95.037351 -48.944693 1494.552512
-94.575239 -49.159208 1494.490531
-94.111372 -49.370254 1494.425767
-93.645701 -49.577662 1494.358181
-93.178180 -49.781262 1494.287734
-92.708761 -49.980886 1494.214387
-92.237396 -50.176365 1494.138101
-91.764039 -50.367530 1494.058837
-91.288641 -50.554211 1493.976556
-90.811156 -50.736240 1493.891218
-90.331535 -50.913448 1493.802785
-89.849732 -51.085666 1493.711218
-89.365699 -51.252724 1493.616477
-88.879388 -51.414455 1493.518524
-88.390753 -51.570688 1493.417320
-87.899745 -51.721255 1493.312825
-87.406317 -51.865988 1493.205000
-86.910422 -52.004716 1493.093806
-86.412012 -52.137272 1492.979205
-85.911041 -52.263485 1492.861158
-85.407460 -52.383188 1492.739624
-84.901221 -52.496211 1492.614566
-84.392279 -52.602385 1492.485943
-83.880584 -52.701541 1492.353718
-83.366091 -52.793510 1492.217851
-82.848750 -52.878124 1492.078303
-82.328516 -52.955213 1491.935034
-81.805377 -53.024640 1491.788010
-81.279475 -53.086397 1491.637203
-80.750987 -53.140506 1491.482590
-80.220092 -53.186991 1491.324149
-79.686967 -53.225876 1491.161855
-79.151791 -53.257182 1490.995686
-78.614742 -53.280934 1490.825619
-78.075998 -53.297155 1490.651630
-77.535736 -53.305867 1490.473695
-76.994135 -53.307095 1490.291793
-76.451373 -53.300861 1490.105899
-75.907628 -53.287188 1489.915990
-75.363077 -53.266099 1489.722044
-74.817900 -53.237619 1489.524036
-74.272274 -53.201769 1489.321944
-73.726377 -53.158573 1489.115744
-73.180387 -53.108055 1488.905413
-72.634482 -53.050238 1488.690928
-72.088841 -52.985144 1488.472265
-71.543641 -52.912797 1488.249402
-70.999060 -52.833220 1488.022315
-70.455276 -52.746436 1487.790981
-69.912468 -52.652469 1487.555377
-69.370814 -52.551341 1487.315479
-68.830491 -52.443076 1487.071264
-68.291677 -52.327698 1486.822709
-67.754551 -52.205228 1486.569791
-67.219291 -52.075691 1486.312486
-66.686075 -51.939110 1486.050771
-66.155080 -51.795507 1485.784624
-65.626485 -51.644906 1485.514020
-65.100468 -51.487331 1485.238937
-64.577206 -51.322803 1484.959351
-64.056879 -51.151348 1484.675239
-63.539664 -50.972987 1484.386578
-63.025738 -50.787744 1484.093344
-62.515281 -50.595642 1483.795515
-62.008470 -50.396704 1483.493066
-61.505483 -50.190954 1483.185976
-61.006499 -49.978415 1482.874220
-60.511694 -49.759109 1482.557776
-60.021248 -49.533061 1482.236619
-59.535338 -49.300293 1481.910728
-59.054143 -49.060828 1481.580078
-58.577840 -48.814690 1481.244647
-58.106578 -48.561914 1480.904438
-57.640387 -48.302591 1480.559563
-57.179269 -48.036821 1480.210162
-56.723223 -47.764706 1479.856374
-56.272251 -47.486349 1479.498338
-55.826354 -47.201852 1479.136194
-55.385533 -46.911315 1478.770081
-54.949787 -46.614842 1478.400138
-54.519119 -46.312534 1478.026504
-54.093528 -46.004493 1477.649318
-53.673017 -45.690820 1477.268721
-53.257584 -45.371619 1476.884851
-52.847233 -45.046990 1476.497847
-52.441962 -44.717035 1476.107849
-52.041773 -44.381857 1475.714996
-51.646667 -44.041558 1475.319427
-51.256645 -43.696238 1474.921282
-50.871708 -43.346001 1474.520699
-50.491855 -42.990948 1474.117819
-50.117089 -42.631181 1473.712780
-49.747410 -42.266802 1473.305722
-49.382819 -41.897913 1472.896783
-49.023316 -41.524615 1472.486104
-48.668902 -41.147011 1472.073823
-48.319579 -40.765202 1471.660080
-47.975347 -40.379291 1471.245014
-47.636207 -39.989380 1470.828764
-47.302159 -39.595569 1470.411470
-46.973205 -39.197961 1469.993270
-46.649346 -38.796659 1469.574305
-46.330581 -38.391764 1469.154713
-46.016913 -37.983377 1468.734633
-45.708341 -37.571601 1468.314206
-45.404867 -37.156538 1467.893569
-45.106492 -36.738289 1467.472863
-44.813215 -36.316957 1467.052227
-44.525039 -35.892643 1466.631800
-44.241964 -35.465449 1466.211721
-43.963991 -35.035478 1465.792130
-43.691120 -34.602830 1465.373165
-43.423353 -34.167609 1464.954967
-43.160689 -33.729915 1464.537673
-42.903131 -33.289851 1464.121425
-42.650679 -32.847519 1463.706360
-42.403334 -32.403021 1463.292619
-42.161089 -31.956454 1462.880326
-41.923914 -31.507901 1462.469550
-41.691771 -31.057442 1462.060347
-41.464622 -30.605154 1461.652770
-41.242428 -30.151116 1461.246876
-41.025152 -29.695408 1460.842719
-40.812756 -29.238108 1460.440353
-40.605202 -28.779295 1460.039835
-40.402453 -28.319048 1459.641218
-40.204469 -27.857444 1459.244557
-40.011213 -27.394564 1458.849909
-39.822648 -26.930486 1458.457326
-39.638735 -26.465288 1458.066865
-39.459437 -25.999049 1457.678580
-39.284714 -25.531849 1457.292526
-39.114531 -25.063766 1456.908758
-38.948848 -24.594878 1456.527331
-38.787627 -24.125264 1456.148300
-38.630832 -23.655004 1455.771719
-38.478423 -23.184175 1455.397644
-38.330363 -22.712858 1455.026130
-38.186614 -22.241129 1454.657231
-38.047138 -21.769069 1454.291002
-37.911897 -21.296756 1453.927499
-37.780853 -20.824268 1453.566776
-37.653968 -20.351685 1453.208887
-37.531205 -19.879085 1452.853889
-37.412524 -19.406548 1452.501835
-37.297890 -18.934150 1452.152782
-37.187262 -18.461973 1451.806783
-37.080605 -17.990093 1451.463893
-36.977878 -17.518591 1451.124168
-36.879046 -17.047544 1450.787662
-36.784069 -16.577032 1450.454431
-36.692910 -16.107133 1450.124528
-36.605531 -15.637926 1449.798010
-36.521893 -15.169490 1449.474931
-36.441960 -14.701904 1449.155345
-36.365693 -14.235245 1448.839309
-36.293053 -13.769594 1448.526876
-36.224005 -13.305029 1448.218101
-36.158508 -12.841628 1447.913040
-36.096525 -12.379471 1447.611748
-36.038019 -11.918636 1447.314279
-35.982952 -11.459201 1447.020688
-35.931295 -11.001236 1446.731024
-35.883062 -10.544765 1446.445318
-35.838276 -10.089803 1446.163593
-35.796960 -9.636366 1445.885873
-35.759137 -9.184467 1445.612181
-35.724831 -8.734122 1445.342541
-35.694066 -8.285346 1445.076978
-35.666863 -7.838154 1444.815515
-35.643246 -7.392560 1444.558177
-35.623240 -6.948579 1444.304986
-35.606866 -6.506226 1444.055968
-35.594148 -6.065516 1443.811145
-35.585110 -5.626463 1443.570541
-35.579774 -5.189083 1443.334182
-35.578164 -4.753391 1443.102089
-35.580303 -4.319401 1442.874289
-35.586214 -3.887128 1442.650803
-35.595921 -3.456587 1442.431656
-35.609447 -3.027792 1442.216872
-35.626814 -2.600760 1442.006476
-35.648047 -2.175504 1441.800489
-35.673168 -1.752039 1441.598938
-35.702201 -1.330380 1441.401845
-35.735168 -0.910542 1441.209234
-35.772094 -0.492540 1441.021129
-35.813002 -0.076389 1440.837555
-35.857914 0.337897 1440.658535
-35.906853 0.750303 1440.484092
-35.959844 1.160813 1440.314251
-36.016909 1.569413 1440.149036
-36.078072 1.976089 1439.988471
-36.143355 2.380824 1439.832578
-36.212783 2.783605 1439.681384
-36.286378 3.184417 1439.534910
-36.364163 3.583244 1439.393181
-36.446162 3.980073 1439.256221
-36.532398 4.374887 1439.124054
-36.622894 4.767673 1438.996704
-36.717674 5.158415 1438.874195
-36.816760 5.547098 1438.756549
-36.920176 5.933708 1438.643792
-37.027946 6.318231 1438.535948
-37.140091 6.700650 1438.433039
-37.256637 7.080951 1438.335090
-37.377605 7.459120 1438.242126
-37.502989 7.835151 1438.154162
-37.632661 8.209083 1438.071191
-37.766462 8.580962 1437.993197
-37.904234 8.950836 1437.920165
-38.045819 9.318752 1437.852080
-38.191059 9.684759 1437.788926
-38.339795 10.048903 1437.730689
-38.491868 10.411232 1437.677352
-38.647121 10.771794 1437.628901
-38.805395 11.130635 1437.585321
-38.966533 11.487804 1437.546595
-39.130374 11.843349 1437.512710
-39.296762 12.197315 1437.483649
-39.465538 12.549752 1437.459397
-39.636544 12.900706 1437.439940
-39.809620 13.250226 1437.425262
-39.984610 13.598358 1437.415347
-40.161354 13.945150 1437.410180
-40.339695 14.290649 1437.409747
-40.519473 14.634904 1437.414031
-40.700532 14.977961 1437.423019
-40.882711 15.319869 1437.436693
-41.065854 15.660674 1437.455039
-41.249801 16.000424 1437.478043
-41.434395 16.339166 1437.505687
-41.619476 16.676949 1437.537959
-41.804888 17.013819 1437.574841
-41.990471 17.349825 1437.616319
-42.176067 17.685013 1437.662377
-42.361518 18.019431 1437.713001
-42.546665 18.353126 1437.768174
-42.731350 18.686147 1437.827883
-42.915416 19.018541 1437.892111
-43.098702 19.350354 1437.960843
-43.281052 19.681636 1438.034064
-43.462307 20.012432 1438.111759
-43.642308 20.342791 1438.193913
-43.820898 20.672760 1438.280509
-43.997917 21.002387 1438.371534
-44.173208 21.331719 1438.466971
-44.346612 21.660804 1438.566805
-44.517972 21.989689 1438.671022
-44.687127 22.318421 1438.779606
-44.853921 22.647049 1438.892541
-45.018195 22.975619 1439.009813
-45.179839 23.304175 1439.131402
-45.338931 23.632741 1439.257274
-45.495600 23.961337 1439.387389
-45.649972 24.289982 1439.521709
-45.802175 24.618696 1439.660195
-45.952337 24.947500 1439.802809
-46.100584 25.276412 1439.949511
-46.247045 25.605454 1440.100263
-46.391846 25.934643 1440.255027
-46.535114 26.264001 1440.413763
-46.676978 26.593547 1440.576433
-46.817564 26.923300 1440.742997
-46.957000 27.253281 1440.913418
-47.095413 27.583510 1441.087657
-47.232931 27.914005 1441.265674
-47.369680 28.244788 1441.447432
-47.505788 28.575877 1441.632890
-47.641383 28.907293 1441.822011
-47.776592 29.239055 1442.014757
-47.911542 29.571183 1442.211087
-48.046360 29.903697 1442.410963
-48.181175 30.236616 1442.614347
-48.316112 30.569961 1442.821200
-48.451300 30.903751 1443.031483
-48.586866 31.238006 1443.245158
-48.722938 31.572745 1443.462185
-48.859642 31.907989 1443.682526
-48.997105 32.243758 1443.906142
-49.135456 32.580070 1444.132994
-49.274822 32.916947 1444.363044
-49.415330 33.254407 1444.596254
-49.557107 33.592470 1444.832583
-49.700280 33.931157 1445.071994
-49.844978 34.270487 1445.314447
-49.991327 34.610479 1445.559905
-50.139454 34.951154 1445.808327
-50.289488 35.292531 1446.059677
-50.441555 35.634631 1446.313914
-50.595782 35.977472 1446.571000
-50.752298 36.321075 1446.830896
-50.911229 36.665459 1447.093564
-51.072703 37.010645 1447.358964
-51.236847 37.356652 1447.627059
-51.403789 37.703499 1447.897809
-51.573655 38.051207 1448.171176
-51.746558 38.399781 1448.447112
-51.922553 38.749168 1448.725536
-52.101678 39.099300 1449.006360
-52.283973 39.450110 1449.289495
-52.469476 39.801529 1449.574851
-52.658228 40.153492 1449.862340
-52.850266 40.505929 1450.151871
-53.045630 40.858773 1450.443356
-53.244359 41.211958 1450.736707
-53.446493 41.565414 1451.031833
-53.652070 41.919076 1451.328645
-53.861130 42.272874 1451.627056
-54.073712 42.626742 1451.926974
-54.289854 42.980612 1452.228312
-54.509597 43.334417 1452.530980
-54.732978 43.688088 1452.834889
-54.960038 44.041558 1453.139949
-55.190816 44.394761 1453.446073
-55.425349 44.747627 1453.753170
-55.663679 45.100090 1454.061152
-55.905843 45.452082 1454.369929
-56.151882 45.803535 1454.679412
-56.401833 46.154382 1454.989513
-56.655737 46.504556 1455.300142
-56.913632 46.853988 1455.611209
-57.175558 47.202612 1455.922626
-57.441553 47.550359 1456.234304
-57.711657 47.897162 1456.546154
-57.985909 48.242953 1456.858086
-58.264348 48.587666 1457.170011
-58.547014 48.931231 1457.481841
-58.833944 49.273583 1457.793485
-59.125179 49.614653 1458.104856
-59.420758 49.954373 1458.415863
-59.720719 50.292676 1458.726418
-60.025103 50.629495 1459.036432
-60.333947 50.964762 1459.345815
-60.647291 51.298409 1459.654478
-60.965175 51.630369 1459.962333
-61.287637 51.960574 1460.269289
-61.614717 52.288956 1460.575259
-61.946453 52.615449 1460.880153
-62.282885 52.939984 1461.183881
-62.624052 53.262495 1461.486355
-62.969993 53.582912 1461.787485
-63.320727 53.901152 1462.087197
-63.676186 54.217063 1462.385475
-64.036285 54.530474 1462.682315
-64.400934 54.841216 1462.977715
-64.770049 55.149120 1463.271674
-65.143540 55.454016 1463.564189
-65.521321 55.755734 1463.855257
-65.903305 56.054105 1464.144877
-66.289405 56.348959 1464.433046
-66.679533 56.640127 1464.719762
-67.073602 56.927439 1465.005022
-67.471525 57.210725 1465.288824
-67.873215 57.489817 1465.571167
-68.278585 57.764543 1465.852047
-68.687546 58.034736 1466.131463
-69.100013 58.300225 1466.409411
-69.515898 58.560840 1466.685891
-69.935113 58.816413 1466.960899
-70.357572 59.066773 1467.234433
-70.783187 59.311751 1467.506491
-71.211871 59.551177 1467.777071
-71.643536 59.784882 1468.046171
-72.078097 60.012697 1468.313787
-72.515465 60.234451 1468.579918
-72.955553 60.449975 1468.844562
-73.398274 60.659100 1469.107716
-73.843541 60.861655 1469.369378
-74.291266 61.057472 1469.629546
-74.741363 61.246381 1469.888218
-75.193744 61.428212 1470.145390
-75.648322 61.602796 1470.401061
-76.105010 61.769963 1470.655229
-76.563720 61.929543 1470.907891
-77.024365 62.081368 1471.159045
-77.486859 62.225266 1471.408689
-77.951113 62.361070 1471.656820
-78.417041 62.488609 1471.903437
-78.884556 62.607713 1472.148536
-79.353570 62.718214 1472.392116
-79.823996 62.819941 1472.634174
-80.295747 62.912725 1472.874708
-80.768735 62.996396 1473.113716
-81.242874 63.070785 1473.351196
-81.718076 63.135723 1473.587144
-82.194255 63.191039 1473.821560
-82.671317 63.236613 1474.054441
-83.149152 63.272522 1474.285796
-83.627645 63.298889 1474.515630
-84.106678 63.315839 1474.743953
-84.586138 63.323498 1474.970773
-85.065907 63.321991 1475.196097
-85.545871 63.311441 1475.419933
-86.025912 63.291975 1475.642289
-86.505916 63.263716 1475.863173
-86.985767 63.226789 1476.082594
-87.465348 63.181321 1476.300558
-87.944545 63.127434 1476.517074
-88.423241 63.065254 1476.732151
-88.901320 62.994907 1476.945795
-89.378667 62.916516 1477.158014
-89.855166 62.830207 1477.368818
-90.330702 62.736104 1477.578213
-90.805157 62.634332 1477.786207
-91.278417 62.525017 1477.992810
-91.750365 62.408282 1478.198027
-92.220887 62.284253 1478.401868
-92.689866 62.153055 1478.604340
-93.157185 62.014812 1478.805452
-93.622731 61.869650 1479.005211
-94.086386 61.717692 1479.203624
-94.548035 61.559064 1479.400701
-95.007563 61.393891 1479.596449
-95.464853 61.222298 1479.790876
-95.919789 61.044409 1479.983990
-96.372256 60.860349 1480.175799
-96.822138 60.670244 1480.366310
-97.269319 60.474217 1480.555532
-97.713684 60.272394 1480.743473
-98.155116 60.064899 1480.930140
-98.593500 59.851858 1481.115542
-99.028720 59.633395 1481.299686
-99.460660 59.409635 1481.482581
-99.889205 59.180703 1481.664234
-100.314238 58.946724 1481.844654
-100.735644 58.707822 1482.023847
-101.153308 58.464123 1482.201823
-101.567112 58.215751 1482.378589
-101.976942 57.962831 1482.554153
-102.382681 57.705488 1482.728523
-102.784215 57.443846 1482.901706
-103.181459 57.178028 1483.073712
-103.574466 56.908144 1483.244546
-103.963318 56.634301 1483.414217
-104.348099 56.356606 1483.582732
-104.728892 56.075166 1483.750096
-105.105783 55.790088 1483.916319
-105.478853 55.501480 1484.081407
-105.848187 55.209448 1484.245366
-106.213868 54.914101 1484.408206
-106.575981 54.615544 1484.569931
-106.934608 54.313886 1484.730551
-107.289834 54.009233 1484.890071
-107.641742 53.701692 1485.048500
-107.990416 53.391371 1485.205843
-108.335939 53.078377 1485.362110
-108.678396 52.762817 1485.517305
-109.017869 52.444798 1485.671438
-109.354443 52.124428 1485.824515
-109.688201 51.801813 1485.976543
-110.019227 51.477061 1486.127530
-110.347605 51.150278 1486.277482
-110.673418 50.821573 1486.426407
-110.996749 50.491051 1486.574311
-111.317684 50.158821 1486.721203
-111.636304 49.824990 1486.867090
-111.952694 49.489664 1487.011978
-112.266938 49.152951 1487.155875
-112.579119 48.814958 1487.298787
-112.889322 48.475792 1487.440723
-113.197628 48.135561 1487.581689
-113.504123 47.794370 1487.721692
-113.808890 47.452329 1487.860741
-114.112013 47.109543 1487.998841
-114.413575 46.766121 1488.136000
-114.713660 46.422168 1488.272225
-115.012351 46.077793 1488.407524
-115.309733 45.733102 1488.541903
-115.605889 45.388203 1488.675370
-115.900902 45.043203 1488.807933
-116.194857 44.698209 1488.939597
-116.487837 44.353327 1489.070371
-116.779926 44.008667 1489.200261
-117.071207 43.664333 1489.329275
-117.361764 43.320434 1489.457420
-117.651680 42.977077 1489.584703
-117.941017 42.634339 1489.711127
-118.229743 42.292178 1489.836683
-118.517801 41.950521 1489.961355
-118.805138 41.609296 1490.085129
-119.091698 41.268431 1490.207990
-119.377426 40.927854 1490.329924
-119.662267 40.587492 1490.450917
-119.946166 40.247273 1490.570954
-120.229068 39.907125 1490.690021
-120.510918 39.566975 1490.808103
-120.791661 39.226752 1490.925185
-121.071241 38.886382 1491.041254
-121.349604 38.545794 1491.156294
-121.626695 38.204916 1491.270292
-121.902458 37.863675 1491.383233
-122.176839 37.521998 1491.495102
-122.449782 37.179814 1491.605885
-122.721232 36.837051 1491.715568
-122.991135 36.493635 1491.824136
-123.259436 36.149495 1491.931574
-123.526078 35.804559 1492.037868
-123.791008 35.458754 1492.143005
-124.054169 35.112008 1492.246968
-124.315508 34.764248 1492.349744
-124.574968 34.415403 1492.451318
-124.832496 34.065400 1492.551677
-125.088035 33.714167 1492.650804
-125.341532 33.361632 1492.748687
-125.592930 33.007721 1492.845310
-125.842174 32.652364 1492.940659
-126.089211 32.295488 1493.034719
-126.333983 31.937020 1493.127477
-126.576438 31.576888 1493.218917
-126.816519 31.215020 1493.309025
-127.054171 30.851344 1493.397788
-127.289339 30.485787 1493.485189
-127.521969 30.118278 1493.571215
-127.752005 29.748743 1493.655852
-127.979392 29.377111 1493.739084
-128.204076 29.003309 1493.820898
-128.426000 28.627265 1493.901279
-128.645110 28.248907 1493.980212
-128.861351 27.868162 1494.057683
-129.074668 27.484958 1494.133678
-129.285006 27.099224 1494.208182
-129.492316 26.710904 1494.281184
-129.696576 26.320014 1494.352685
-129.897769 25.926587 1494.422689
-130.095880 25.530658 1494.491200
-130.290892 25.132260 1494.558224
-130.482789 24.731426 1494.623763
-130.671555 24.328190 1494.687822
-130.857174 23.922585 1494.750406
-131.039630 23.514645 1494.811519
-131.218907 23.104404 1494.871164
-131.394988 22.691894 1494.929347
-131.567858 22.277150 1494.986072
-131.737500 21.860205 1495.041342
-131.903899 21.441093 1495.095163
-132.067037 21.019847 1495.147537
-132.226900 20.596500 1495.198471
-132.383471 20.171086 1495.247967
-132.536733 19.743640 1495.296031
-132.686671 19.314193 1495.342665
-132.833269 18.882780 1495.387876
-132.976511 18.449435 1495.431666
-133.116380 18.014190 1495.474041
-133.252860 17.577079 1495.515004
-133.385935 17.138137 1495.554559
-133.515589 16.697396 1495.592712
-133.641806 16.254890 1495.629466
-133.764570 15.810652 1495.664826
-133.883865 15.364716 1495.698795
-133.999674 14.917116 1495.731378
-134.111982 14.467885 1495.762579
-134.220772 14.017056 1495.792403
-134.326029 13.564664 1495.820854
-134.427736 13.110741 1495.847936
-134.525876 12.655321 1495.873653
-134.620435 12.198438 1495.898010
-134.711395 11.740126 1495.921011
-134.798742 11.280417 1495.942660
-134.882457 10.819345 1495.962961
-134.962527 10.356944 1495.981919
-135.038933 9.893248 1495.999537
-135.111661 9.428289 1496.015821
-135.180694 8.962102 1496.030775
-135.246016 8.494720 1496.044402
-135.307611 8.026177 1496.056707
